ply
format ascii 1.0
comment Created by Open3D
element vertex 1301
property double x
property double y
property double z
property uchar red
property uchar green
property uchar blue
end_header
0.0446078 0.0820466 0.407843 153 0 0
0.045841 0.0828355 0.411765 153 0 0
0.0470895 0.0836244 0.415686 153 0 0
0.0483532 0.0844133 0.419608 153 0 0
0.0496324 0.0852022 0.423529 153 0 0
0.0509268 0.0859911 0.427451 153 0 0
0.0555607 0.0923024 0.458824 153 0 0
0.0574219 0.0938802 0.466667 153 0 0
0.0588235 0.0946691 0.470588 153 0 0
0.0602405 0.095458 0.47451 153 0 0
0.0616728 0.0962469 0.478431 153 0 0
0.0631204 0.0970358 0.482353 153 0 0
0.0651042 0.0986137 0.490196 153 0 0
0.0665901 0.0994026 0.494118 153 0 0
0.0680913 0.100191 0.498039 153 0 0
0.0696078 0.10098 0.501961 242 0 0
0.0705882 0.10098 0.501961 242 0 0
0.0715686 0.10098 0.501961 242 0 0
0.072549 0.10098 0.501961 242 0 0
0.0735294 0.10098 0.501961 242 0 0
0.0745098 0.10098 0.501961 242 0 0
0.07608 0.101769 0.505882 153 0 0
0.0776654 0.102558 0.509804 153 0 0
0.0798713 0.104136 0.517647 153 0 0
0.0814951 0.104925 0.521569 153 0 0
0.0837546 0.106503 0.529412 153 0 0
-0.104435 0.107537 0.529412 153 0 0
-0.103401 0.107537 0.529412 153 0 0
-0.101608 0.10674 0.52549 153 0 0
-0.100582 0.10674 0.52549 153 0 0
-0.0995558 0.10674 0.52549 153 0 0
-0.0977941 0.105944 0.521569 153 0 0
-0.0967754 0.105944 0.521569 153 0 0
-0.0957567 0.105944 0.521569 153 0 0
-0.0940257 0.105147 0.517647 153 0 0
-0.0930147 0.105147 0.517647 153 0 0
-0.0920037 0.105147 0.517647 153 0 0
-0.0903033 0.10435 0.513726 153 0 0
-0.0892999 0.10435 0.513726 153 0 0
-0.0882966 0.10435 0.513726 153 0 0
-0.0866268 0.103554 0.509804 153 0 0
-0.0856311 0.103554 0.509804 153 0 0
-0.0846354 0.103554 0.509804 153 0 0
-0.0829963 0.102757 0.505882 153 0 0
-0.0820083 0.102757 0.505882 153 0 0
-0.0810202 0.102757 0.505882 153 0 0
-0.0794118 0.101961 0.501961 153 0 0
-0.0784314 0.101961 0.501961 239 0 0
-0.077451 0.101961 0.501961 239 0 0
-0.0764706 0.101961 0.501961 239 0 0
-0.0754902 0.101961 0.501961 239 0 0
-0.0745098 0.101961 0.501961 239 0 0
-0.0735294 0.101961 0.501961 239 0 0
-0.072549 0.101961 0.501961 239 0 0
-0.0715686 0.101961 0.501961 239 0 0
-0.0705882 0.101961 0.501961 239 0 0
-0.0696078 0.101961 0.501961 239 0 0
-0.0686275 0.101961 0.501961 153 0 0
-0.0676471 0.101961 0.501961 153 0 0
-0.0666667 0.101961 0.501961 153 0 0
-0.0651731 0.101164 0.498039 153 0 0
-0.0642004 0.101164 0.498039 153 0 0
-0.0632276 0.101164 0.498039 153 0 0
-0.0617647 0.100368 0.494118 153 0 0
-0.0607996 0.100368 0.494118 153 0 0
-0.0598346 0.100368 0.494118 153 0 0
-0.0588695 0.100368 0.494118 153 0 0
-0.0574449 0.0995711 0.490196 153 0 0
-0.0564874 0.0995711 0.490196 153 0 0
-0.05553 0.0995711 0.490196 153 0 0
-0.054136 0.0987745 0.486275 153 0 0
-0.0531863 0.0987745 0.486275 153 0 0
-0.0522365 0.0987745 0.486275 153 0 0
-0.0512868 0.0987745 0.486275 153 0 0
-0.0499311 0.0979779 0.482353 153 0 0
-0.048989 0.0979779 0.482353 153 0 0
-0.0480469 0.0979779 0.482353 153 0 0
-0.0467218 0.0971814 0.478431 153 0 0
-0.0457874 0.0971814 0.478431 153 0 0
-0.0448529 0.0971814 0.478431 153 0 0
-0.0439185 0.0971814 0.478431 153 0 0
-0.0426317 0.0963848 0.47451 153 0 0
-0.041705 0.0963848 0.47451 153 0 0
-0.0407782 0.0963848 0.47451 153 0 0
-0.0398514 0.0963848 0.47451 153 0 0
-0.0386029 0.0955882 0.470588 153 0 0
-0.0376838 0.0955882 0.470588 153 0 0
-0.0367647 0.0955882 0.470588 153 0 0
-0.0355469 0.0947917 0.466667 153 0 0
-0.0346354 0.0947917 0.466667 153 0 0
-0.033724 0.0947917 0.466667 153 0 0
-0.0328125 0.0947917 0.466667 153 0 0
-0.031633 0.0939951 0.462745 153 0 0
-0.0307292 0.0939951 0.462745 153 0 0
-0.0298254 0.0939951 0.462745 153 0 0
-0.0289216 0.0939951 0.462745 153 0 0
-0.0277803 0.0931985 0.458824 153 0 0
-0.0268842 0.0931985 0.458824 153 0 0
-0.0259881 0.0931985 0.458824 153 0 0
-0.0250919 0.0931985 0.458824 153 0 0
-0.023989 0.092402 0.454902 153 0 0
-0.0231005 0.092402 0.454902 153 0 0
-0.022212 0.092402 0.454902 153 0 0
-0.0213235 0.092402 0.454902 153 0 0
-0.0202589 0.0916054 0.45098 153 0 0
-0.0193781 0.0916054 0.45098 153 0 0
-0.0184972 0.0916054 0.45098 153 0 0
-0.0176164 0.0916054 0.45098 153 0 0
-0.0165901 0.0908088 0.447059 153 0 0
-0.0157169 0.0908088 0.447059 153 0 0
-0.0148438 0.0908088 0.447059 153 0 0
-0.0139706 0.0908088 0.447059 153 0 0
-0.0130974 0.0908088 0.447059 153 0 0
-0.012117 0.0900123 0.443137 153 0 0
-0.0112515 0.0900123 0.443137 153 0 0
-0.010386 0.0900123 0.443137 153 0 0
-0.00926777 0.0876225 0.431373 153 0 0
-0.00842525 0.0876225 0.431373 153 0 0
-0.00751379 0.086826 0.427451 153 0 0
-0.00667892 0.086826 0.427451 153 0 0
-0.00584406 0.086826 0.427451 153 0 0
-0.00500919 0.086826 0.427451 153 0 0
-0.00417433 0.086826 0.427451 153 0 0
-0.00330882 0.0860294 0.423529 153 0 0
-0.00248162 0.0860294 0.423529 153 0 0
-0.00170037 0.0884191 0.435294 153 0 0
-0.000842525 0.0876225 0.431373 153 0 0
0 0.0876225 0.431373 153 0 0
0.000842525 0.0876225 0.431373 153 0 0
0.00168505 0.0876225 0.431373 153 0 0
0.0025046 0.086826 0.427451 153 0 0
0.00333946 0.086826 0.427451 153 0 0
0.00417433 0.086826 0.427451 153 0 0
0.00500919 0.086826 0.427451 153 0 0
0.00584406 0.086826 0.427451 153 0 0
0.00661765 0.0860294 0.423529 153 0 0
0.00744485 0.0860294 0.423529 153 0 0
0.00827206 0.0860294 0.423529 153 0 0
0.00909926 0.0860294 0.423529 153 0 0
0.00992647 0.0860294 0.423529 153 0 0
0.0106541 0.0852328 0.419608 153 0 0
0.0112592 0.0836397 0.411765 153 0 0
0.0119485 0.0828431 0.407843 153 0 0
0.0127451 0.0828431 0.407843 153 0 0
0.0135417 0.0828431 0.407843 153 0 0
0.0143382 0.0828431 0.407843 153 0 0
0.0151348 0.0828431 0.407843 153 0 0
0.0157782 0.0820466 0.403922 153 0 0
0.0165671 0.0820466 0.403922 153 0 0
0.017356 0.0820466 0.403922 153 0 0
0.0181449 0.0820466 0.403922 153 0 0
0.0189338 0.0820466 0.403922 153 0 0
0.0195313 0.08125 0.4 153 0 0
0.0203125 0.08125 0.4 153 0 0
0.0210938 0.08125 0.4 153 0 0
0.021875 0.08125 0.4 153 0 0
0.0226563 0.08125 0.4 153 0 0
0.0232077 0.0804534 0.396078 153 0 0
0.0239813 0.0804534 0.396078 153 0 0
0.0247549 0.0804534 0.396078 153 0 0
0.0255285 0.0804534 0.396078 153 0 0
0.0263021 0.0804534 0.396078 153 0 0
0.0268076 0.0796569 0.392157 153 0 0
0.0275735 0.0796569 0.392157 153 0 0
0.0283395 0.0796569 0.392157 153 0 0
0.0291054 0.0796569 0.392157 153 0 0
0.0298713 0.0796569 0.392157 153 0 0
0.0303309 0.0788603 0.388235 153 0 0
0.0310892 0.0788603 0.388235 153 0 0
0.0318474 0.0788603 0.388235 153 0 0
0.0326057 0.0788603 0.388235 153 0 0
0.033364 0.0788603 0.388235 153 0 0
0.0341222 0.0788603 0.388235 153 0 0
0.0345282 0.0780637 0.384314 153 0 0
0.0352788 0.0780637 0.384314 153 0 0
0.0360294 0.0780637 0.384314 153 0 0
0.03678 0.0780637 0.384314 153 0 0
0.0379136 0.0788603 0.388235 153 0 0
0.0390625 0.0796569 0.392157 153 0 0
0.0402267 0.0804534 0.396078 153 0 0
0.0414063 0.08125 0.4 153 0 0
0.0426011 0.0820466 0.403922 153 0 0
0.0438113 0.0828431 0.407843 153 0 0
0.0450368 0.0836397 0.411765 153 0 0
0.0462776 0.0844363 0.415686 153 0 0
0.0470895 0.0844363 0.415686 153 0 0
0.0483532 0.0852328 0.419608 153 0 0
0.0496324 0.0860294 0.423529 153 0 0
0.051394 0.0876225 0.431373 153 0 0
0.0560355 0.0939951 0.462745 153 0 0
0.0574219 0.0947917 0.466667 153 0 0
0.0588235 0.0955882 0.470588 153 0 0
0.0602405 0.0963848 0.47451 153 0 0
0.0621783 0.0979779 0.482353 153 0 0
0.0636336 0.0987745 0.486275 153 0 0
0.0651042 0.0995711 0.490196 153 0 0
0.0665901 0.100368 0.494118 153 0 0
0.0680913 0.101164 0.498039 242 0 0
0.0696078 0.101961 0.501961 242 0 0
0.0705882 0.101961 0.501961 242 0 0
0.0715686 0.101961 0.501961 242 0 0
0.072549 0.101961 0.501961 242 0 0
0.0735294 0.101961 0.501961 242 0 0
0.0745098 0.101961 0.501961 153 0 0
0.07608 0.102757 0.505882 153 0 0
0.0782629 0.10435 0.513726 153 0 0
0.0798713 0.105147 0.517647 153 0 0
0.0821078 0.10674 0.52549 153 0 0
-0.102367 0.108571 0.529412 153 0 0
-0.100582 0.107767 0.52549 153 0 0
-0.0995558 0.107767 0.52549 153 0 0
-0.0985294 0.107767 0.52549 153 0 0
-0.0967754 0.106962 0.521569 153 0 0
-0.0957567 0.106962 0.521569 153 0 0
-0.0947381 0.106962 0.521569 153 0 0
-0.0930147 0.106158 0.517647 153 0 0
-0.0920037 0.106158 0.517647 153 0 0
-0.0909927 0.106158 0.517647 153 0 0
-0.0892999 0.105354 0.513726 153 0 0
-0.0882966 0.105354 0.513726 153 0 0
-0.0872932 0.105354 0.513726 153 0 0
-0.0856311 0.10455 0.509804 153 0 0
-0.0846354 0.10455 0.509804 153 0 0
-0.0836397 0.10455 0.509804 153 0 0
-0.0820083 0.103745 0.505882 153 0 0
-0.0810202 0.103745 0.505882 153 0 0
-0.0800322 0.103745 0.505882 153 0 0
-0.0790441 0.103745 0.505882 153 0 0
-0.077451 0.102941 0.501961 153 0 0
-0.0764706 0.102941 0.501961 239 0 0
-0.0754902 0.102941 0.501961 239 0 0
-0.0745098 0.102941 0.501961 239 0 0
-0.0735294 0.102941 0.501961 239 0 0
-0.072549 0.102941 0.501961 239 0 0
-0.0715686 0.102941 0.501961 239 0 0
-0.0705882 0.102941 0.501961 239 0 0
-0.0696078 0.102941 0.501961 239 0 0
-0.0686275 0.102941 0.501961 239 0 0
-0.0676471 0.102941 0.501961 239 0 0
-0.0666667 0.102941 0.501961 153 0 0
-0.0656863 0.102941 0.501961 153 0 0
-0.0642004 0.102137 0.498039 153 0 0
-0.0632276 0.102137 0.498039 153 0 0
-0.0622549 0.102137 0.498039 153 0 0
-0.0607996 0.101333 0.494118 153 0 0
-0.0598346 0.101333 0.494118 153 0 0
-0.0588695 0.101333 0.494118 153 0 0
-0.0579044 0.101333 0.494118 153 0 0
-0.0564874 0.100528 0.490196 153 0 0
-0.05553 0.100528 0.490196 153 0 0
-0.0545726 0.100528 0.490196 153 0 0
-0.0531863 0.0997243 0.486275 153 0 0
-0.0522365 0.0997243 0.486275 153 0 0
-0.0512868 0.0997243 0.486275 153 0 0
-0.050337 0.0997243 0.486275 153 0 0
-0.048989 0.09892 0.482353 153 0 0
-0.0480469 0.09892 0.482353 153 0 0
-0.0471048 0.09892 0.482353 153 0 0
-0.0457874 0.0981158 0.478431 153 0 0
-0.0448529 0.0981158 0.478431 153 0 0
-0.0439185 0.0981158 0.478431 153 0 0
-0.0429841 0.0981158 0.478431 153 0 0
-0.041705 0.0973116 0.47451 153 0 0
-0.0407782 0.0973116 0.47451 153 0 0
-0.0398514 0.0973116 0.47451 153 0 0
-0.0389246 0.0973116 0.47451 153 0 0
-0.0376838 0.0965074 0.470588 153 0 0
-0.0367647 0.0965074 0.470588 153 0 0
-0.0358456 0.0965074 0.470588 153 0 0
-0.0349265 0.0965074 0.470588 153 0 0
-0.033724 0.0957031 0.466667 153 0 0
-0.0328125 0.0957031 0.466667 153 0 0
-0.031901 0.0957031 0.466667 153 0 0
-0.0309896 0.0957031 0.466667 153 0 0
-0.0298254 0.0948989 0.462745 153 0 0
-0.0289216 0.0948989 0.462745 153 0 0
-0.0280178 0.0948989 0.462745 153 0 0
-0.0268842 0.0940947 0.458824 153 0 0
-0.0259881 0.0940947 0.458824 153 0 0
-0.0250919 0.0940947 0.458824 153 0 0
-0.0241958 0.0940947 0.458824 153 0 0
-0.0231005 0.0932904 0.454902 153 0 0
-0.022212 0.0932904 0.454902 153 0 0
-0.0213235 0.0932904 0.454902 153 0 0
-0.020435 0.0932904 0.454902 153 0 0
-0.0195466 0.0932904 0.454902 153 0 0
-0.0184972 0.0924862 0.45098 153 0 0
-0.0176164 0.0924862 0.45098 153 0 0
-0.0167356 0.0924862 0.45098 153 0 0
-0.0158548 0.0924862 0.45098 153 0 0
-0.0148438 0.091682 0.447059 153 0 0
-0.0139706 0.091682 0.447059 153 0 0
-0.0130974 0.091682 0.447059 153 0 0
-0.0122243 0.091682 0.447059 153 0 0
-0.0112515 0.0908778 0.443137 153 0 0
-0.0101103 0.0884651 0.431373 153 0 0
-0.00926777 0.0884651 0.431373 153 0 0
-0.00842525 0.0884651 0.431373 153 0 0
-0.00758272 0.0884651 0.431373 153 0 0
-0.0067402 0.0884651 0.431373 153 0 0
-0.00584406 0.0876608 0.427451 153 0 0
-0.00500919 0.0876608 0.427451 153 0 0
-0.00417433 0.0876608 0.427451 153 0 0
-0.00333946 0.0876608 0.427451 153 0 0
-0.00255055 0.0892693 0.435294 153 0 0
-0.00170037 0.0892693 0.435294 153 0 0
-0.000850184 0.0892693 0.435294 153 0 0
0 0.0884651 0.431373 153 0 0
0.000842525 0.0884651 0.431373 153 0 0
0.00168505 0.0884651 0.431373 153 0 0
0.00252757 0.0884651 0.431373 153 0 0
0.00333946 0.0876608 0.427451 153 0 0
0.00417433 0.0876608 0.427451 153 0 0
0.00500919 0.0876608 0.427451 153 0 0
0.00584406 0.0876608 0.427451 153 0 0
0.00667892 0.0876608 0.427451 153 0 0
0.00744485 0.0868566 0.423529 153 0 0
0.00827206 0.0868566 0.423529 153 0 0
0.00909926 0.0868566 0.423529 153 0 0
0.00992647 0.0868566 0.423529 153 0 0
0.0107537 0.0868566 0.423529 153 0 0
0.0112592 0.0844439 0.411765 153 0 0
0.0120634 0.0844439 0.411765 153 0 0
0.0127451 0.0836397 0.407843 153 0 0
0.0135417 0.0836397 0.407843 153 0 0
0.0143382 0.0836397 0.407843 153 0 0
0.0151348 0.0836397 0.407843 153 0 0
0.0159314 0.0836397 0.407843 153 0 0
0.0165671 0.0828355 0.403922 153 0 0
0.017356 0.0828355 0.403922 153 0 0
0.0181449 0.0828355 0.403922 153 0 0
0.0189338 0.0828355 0.403922 153 0 0
0.0197227 0.0828355 0.403922 153 0 0
0.0203125 0.0820313 0.4 153 0 0
0.0210938 0.0820313 0.4 153 0 0
0.021875 0.0820313 0.4 153 0 0
0.0226563 0.0820313 0.4 153 0 0
0.0234375 0.0820313 0.4 153 0 0
0.0239813 0.081227 0.396078 153 0 0
0.0247549 0.081227 0.396078 153 0 0
0.0255285 0.081227 0.396078 153 0 0
0.0263021 0.081227 0.396078 153 0 0
0.0270757 0.081227 0.396078 153 0 0
0.0275735 0.0804228 0.392157 153 0 0
0.0283395 0.0804228 0.392157 153 0 0
0.0291054 0.0804228 0.392157 153 0 0
0.0298713 0.0804228 0.392157 153 0 0
0.0306373 0.0804228 0.392157 153 0 0
0.0314032 0.0804228 0.392157 153 0 0
0.0318474 0.0796186 0.388235 153 0 0
0.0326057 0.0796186 0.388235 153 0 0
0.033364 0.0796186 0.388235 153 0 0
0.0341222 0.0796186 0.388235 153 0 0
0.0348805 0.0796186 0.388235 153 0 0
0.0352788 0.0788143 0.384314 153 0 0
0.0360294 0.0788143 0.384314 153 0 0
0.0371553 0.0796186 0.388235 153 0 0
0.0379136 0.0796186 0.388235 153 0 0
0.0390625 0.0804228 0.392157 153 0 0
0.0402267 0.081227 0.396078 153 0 0
0.0414063 0.0820313 0.4 153 0 0
0.0426011 0.0828355 0.403922 153 0 0
0.0438113 0.0836397 0.407843 153 0 0
0.0450368 0.0844439 0.411765 153 0 0
0.0462776 0.0852482 0.415686 153 0 0
0.0475337 0.0860524 0.419608 153 0 0
0.0488051 0.0868566 0.423529 153 0 0
0.0500919 0.0876608 0.427451 153 0 0
0.0546645 0.0940947 0.458824 153 0 0
0.0560355 0.0948989 0.462745 153 0 0
0.0574219 0.0957031 0.466667 153 0 0
0.0593137 0.0973116 0.47451 153 0 0
0.0607384 0.0981158 0.478431 153 0 0
0.0621783 0.09892 0.482353 153 0 0
0.0636336 0.0997243 0.486275 153 0 0
0.065625 0.101333 0.494118 153 0 0
0.0671186 0.102137 0.498039 153 0 0
0.0680913 0.102137 0.498039 242 0 0
0.069064 0.102137 0.498039 242 0 0
0.0700368 0.102137 0.498039 242 0 0
0.0710095 0.102137 0.498039 242 0 0
0.0719822 0.102137 0.498039 242 0 0
0.072955 0.102137 0.498039 242 0 0
0.0745098 0.102941 0.501961 153 0 0
0.0766697 0.10455 0.509804 153 0 0
0.0782629 0.105354 0.513726 153 0 0
0.0804764 0.106962 0.521569 153 0 0
0.0821078 0.107767 0.52549 153 0 0
-0.101333 0.109605 0.529412 153 0 0
-0.0995558 0.108793 0.52549 153 0 0
-0.0985294 0.108793 0.52549 153 0 0
-0.0975031 0.108793 0.52549 153 0 0
-0.0957567 0.107981 0.521569 153 0 0
-0.0947381 0.107981 0.521569 153 0 0
-0.0937194 0.107981 0.521569 153 0 0
-0.0920037 0.107169 0.517647 153 0 0
-0.0909927 0.107169 0.517647 153 0 0
-0.0899816 0.107169 0.517647 153 0 0
-0.0882966 0.106357 0.513726 153 0 0
-0.0872932 0.106357 0.513726 153 0 0
-0.0862898 0.106357 0.513726 153 0 0
-0.0846354 0.105545 0.509804 153 0 0
-0.0836397 0.105545 0.509804 153 0 0
-0.082644 0.105545 0.509804 153 0 0
-0.0816483 0.105545 0.509804 153 0 0
-0.0800322 0.104733 0.505882 153 0 0
-0.0790441 0.104733 0.505882 153 0 0
-0.0780561 0.104733 0.505882 153 0 0
-0.0764706 0.103922 0.501961 153 0 0
-0.0754902 0.103922 0.501961 153 0 0
-0.0745098 0.103922 0.501961 239 0 0
-0.0735294 0.103922 0.501961 239 0 0
-0.072549 0.103922 0.501961 239 0 0
-0.0715686 0.103922 0.501961 239 0 0
-0.0705882 0.103922 0.501961 239 0 0
-0.0696078 0.103922 0.501961 239 0 0
-0.0686275 0.103922 0.501961 239 0 0
-0.0676471 0.103922 0.501961 239 0 0
-0.0666667 0.103922 0.501961 239 0 0
-0.0656863 0.103922 0.501961 239 0 0
-0.0647059 0.103922 0.501961 153 0 0
-0.0632276 0.10311 0.498039 153 0 0
-0.0622549 0.10311 0.498039 153 0 0
-0.0612822 0.10311 0.498039 153 0 0
-0.0603094 0.10311 0.498039 153 0 0
-0.0588695 0.102298 0.494118 153 0 0
-0.0579044 0.102298 0.494118 153 0 0
-0.0569393 0.102298 0.494118 153 0 0
-0.05553 0.101486 0.490196 153 0 0
-0.0545726 0.101486 0.490196 153 0 0
-0.0536152 0.101486 0.490196 153 0 0
-0.0526578 0.101486 0.490196 153 0 0
-0.0512868 0.100674 0.486275 153 0 0
-0.050337 0.100674 0.486275 153 0 0
-0.0493873 0.100674 0.486275 153 0 0
-0.0480469 0.0998621 0.482353 153 0 0
-0.0471048 0.0998621 0.482353 153 0 0
-0.0461627 0.0998621 0.482353 153 0 0
-0.0452206 0.0998621 0.482353 153 0 0
-0.0439185 0.0990502 0.478431 153 0 0
-0.0429841 0.0990502 0.478431 153 0 0
-0.0420496 0.0990502 0.478431 153 0 0
-0.0407782 0.0982384 0.47451 153 0 0
-0.0398514 0.0982384 0.47451 153 0 0
-0.0389246 0.0982384 0.47451 153 0 0
-0.0379979 0.0982384 0.47451 153 0 0
-0.0367647 0.0974265 0.470588 153 0 0
-0.0358456 0.0974265 0.470588 153 0 0
-0.0349265 0.0974265 0.470588 153 0 0
-0.0340074 0.0974265 0.470588 153 0 0
-0.0328125 0.0966146 0.466667 153 0 0
-0.031901 0.0966146 0.466667 153 0 0
-0.0309896 0.0966146 0.466667 153 0 0
-0.0300781 0.0966146 0.466667 153 0 0
-0.0289216 0.0958027 0.462745 153 0 0
-0.0280178 0.0958027 0.462745 153 0 0
-0.027114 0.0958027 0.462745 153 0 0
-0.0262102 0.0958027 0.462745 153 0 0
-0.0250919 0.0949908 0.458824 153 0 0
-0.0241958 0.0949908 0.458824 153 0 0
-0.0232996 0.0949908 0.458824 153 0 0
-0.0224035 0.0949908 0.458824 153 0 0
-0.0213235 0.0941789 0.454902 153 0 0
-0.020435 0.0941789 0.454902 153 0 0
-0.0195466 0.0941789 0.454902 153 0 0
-0.0186581 0.0941789 0.454902 153 0 0
-0.0176164 0.093367 0.45098 153 0 0
-0.0167356 0.093367 0.45098 153 0 0
-0.0158548 0.093367 0.45098 153 0 0
-0.014974 0.093367 0.45098 153 0 0
-0.0139706 0.0925551 0.447059 153 0 0
-0.0130974 0.0925551 0.447059 153 0 0
-0.0122243 0.0925551 0.447059 153 0 0
-0.0113511 0.0925551 0.447059 153 0 0
-0.0102022 0.0901195 0.435294 153 0 0
-0.00926777 0.0893076 0.431373 153 0 0
-0.00842525 0.0893076 0.431373 153 0 0
-0.00758272 0.0893076 0.431373 153 0 0
-0.0067402 0.0893076 0.431373 153 0 0
-0.00589767 0.0893076 0.431373 153 0 0
-0.00500919 0.0884957 0.427451 153 0 0
-0.00417433 0.0884957 0.427451 153 0 0
-0.00333946 0.0884957 0.427451 153 0 0
-0.00255055 0.0901195 0.435294 153 0 0
-0.00170037 0.0901195 0.435294 153 0 0
-0.000850184 0.0901195 0.435294 153 0 0
0 0.0901195 0.435294 153 0 0
0.000842525 0.0893076 0.431373 153 0 0
0.00168505 0.0893076 0.431373 153 0 0
0.00252757 0.0893076 0.431373 153 0 0
0.0033701 0.0893076 0.431373 153 0 0
0.00421262 0.0893076 0.431373 153 0 0
0.00500919 0.0884957 0.427451 153 0 0
0.00584406 0.0884957 0.427451 153 0 0
0.00667892 0.0884957 0.427451 153 0 0
0.00751379 0.0884957 0.427451 153 0 0
0.00827206 0.0876838 0.423529 153 0 0
0.00909926 0.0876838 0.423529 153 0 0
0.00992647 0.0876838 0.423529 153 0 0
0.0107537 0.0876838 0.423529 153 0 0
0.0115809 0.0876838 0.423529 153 0 0
0.0120634 0.0852482 0.411765 153 0 0
0.0128676 0.0852482 0.411765 153 0 0
0.0135417 0.0844363 0.407843 153 0 0
0.0143382 0.0844363 0.407843 153 0 0
0.0151348 0.0844363 0.407843 153 0 0
0.0159314 0.0844363 0.407843 153 0 0
0.0167279 0.0844363 0.407843 153 0 0
0.017356 0.0836244 0.403922 153 0 0
0.0181449 0.0836244 0.403922 153 0 0
0.0189338 0.0836244 0.403922 153 0 0
0.0197227 0.0836244 0.403922 153 0 0
0.0205116 0.0836244 0.403922 153 0 0
0.0210938 0.0828125 0.4 153 0 0
0.021875 0.0828125 0.4 153 0 0
0.0226563 0.0828125 0.4 153 0 0
0.0234375 0.0828125 0.4 153 0 0
0.0242188 0.0828125 0.4 153 0 0
0.0247549 0.0820006 0.396078 153 0 0
0.0255285 0.0820006 0.396078 153 0 0
0.0263021 0.0820006 0.396078 153 0 0
0.0270757 0.0820006 0.396078 153 0 0
0.0278493 0.0820006 0.396078 153 0 0
0.0283395 0.0811887 0.392157 153 0 0
0.0291054 0.0811887 0.392157 153 0 0
0.0298713 0.0811887 0.392157 153 0 0
0.0306373 0.0811887 0.392157 153 0 0
0.0314032 0.0811887 0.392157 153 0 0
0.0321691 0.0811887 0.392157 153 0 0
0.0326057 0.0803768 0.388235 153 0 0
0.033364 0.0803768 0.388235 153 0 0
0.0341222 0.0803768 0.388235 153 0 0
0.0348805 0.0803768 0.388235 153 0 0
0.0356388 0.0803768 0.388235 153 0 0
0.0360294 0.079565 0.384314 153 0 0
0.0371553 0.0803768 0.388235 153 0 0
0.0382966 0.0811887 0.392157 153 0 0
0.0394531 0.0820006 0.396078 153 0 0
0.040625 0.0828125 0.4 153 0 0
0.0414063 0.0828125 0.4 153 0 0
0.0426011 0.0836244 0.403922 153 0 0
0.0438113 0.0844363 0.407843 153 0 0
0.0450368 0.0852482 0.411765 153 0 0
0.0462776 0.0860601 0.415686 153 0 0
0.0475337 0.0868719 0.419608 153 0 0
0.0488051 0.0876838 0.423529 153 0 0
0.0500919 0.0884957 0.427451 153 0 0
0.0551317 0.0958027 0.462745 153 0 0
0.0565104 0.0966146 0.466667 153 0 0
0.0579044 0.0974265 0.470588 153 0 0
0.0593137 0.0982384 0.47451 153 0 0
0.0607384 0.0990502 0.478431 153 0 0
0.0626838 0.100674 0.486275 153 0 0
0.0641468 0.101486 0.490196 153 0 0
0.065625 0.102298 0.494118 153 0 0
0.0671186 0.10311 0.498039 242 0 0
0.0680913 0.10311 0.498039 242 0 0
0.069064 0.10311 0.498039 242 0 0
0.0700368 0.10311 0.498039 242 0 0
0.0710095 0.10311 0.498039 242 0 0
0.0719822 0.10311 0.498039 242 0 0
0.0735294 0.103922 0.501961 153 0 0
0.0750919 0.104733 0.505882 153 0 0
0.0766697 0.105545 0.509804 153 0 0
0.0788603 0.107169 0.517647 153 0 0
0.0810815 0.108793 0.52549 153 0 0
-0.0985294 0.109819 0.52549 153 0 0
-0.0975031 0.109819 0.52549 153 0 0
-0.0964767 0.109819 0.52549 153 0 0
-0.0947381 0.109 0.521569 153 0 0
-0.0937194 0.109 0.521569 153 0 0
-0.0927007 0.109 0.521569 153 0 0
-0.0909927 0.10818 0.517647 153 0 0
-0.0899816 0.10818 0.517647 153 0 0
-0.0889706 0.10818 0.517647 153 0 0
-0.0872932 0.107361 0.513726 153 0 0
-0.0862898 0.107361 0.513726 153 0 0
-0.0852865 0.107361 0.513726 153 0 0
-0.0842831 0.107361 0.513726 153 0 0
-0.082644 0.106541 0.509804 153 0 0
-0.0816483 0.106541 0.509804 153 0 0
-0.0806526 0.106541 0.509804 153 0 0
-0.0790441 0.105722 0.505882 153 0 0
-0.0780561 0.105722 0.505882 153 0 0
-0.077068 0.105722 0.505882 153 0 0
-0.0754902 0.104902 0.501961 153 0 0
-0.0745098 0.104902 0.501961 153 0 0
-0.0735294 0.104902 0.501961 153 0 0
-0.072549 0.104902 0.501961 239 0 0
-0.0715686 0.104902 0.501961 239 0 0
-0.0705882 0.104902 0.501961 239 0 0
-0.0696078 0.104902 0.501961 239 0 0
-0.0686275 0.104902 0.501961 239 0 0
-0.0676471 0.104902 0.501961 239 0 0
-0.0666667 0.104902 0.501961 239 0 0
-0.0656863 0.104902 0.501961 239 0 0
-0.0647059 0.104902 0.501961 239 0 0
-0.0637255 0.104902 0.501961 239 0 0
-0.0622549 0.104082 0.498039 153 0 0
-0.0612822 0.104082 0.498039 153 0 0
-0.0603094 0.104082 0.498039 153 0 0
-0.0593367 0.104082 0.498039 153 0 0
-0.0579044 0.103263 0.494118 153 0 0
-0.0569393 0.103263 0.494118 153 0 0
-0.0559743 0.103263 0.494118 153 0 0
-0.0545726 0.102443 0.490196 153 0 0
-0.0536152 0.102443 0.490196 153 0 0
-0.0526578 0.102443 0.490196 153 0 0
-0.0517004 0.102443 0.490196 153 0 0
-0.050337 0.101624 0.486275 153 0 0
-0.0493873 0.101624 0.486275 153 0 0
-0.0484375 0.101624 0.486275 153 0 0
-0.0471048 0.100804 0.482353 153 0 0
-0.0461627 0.100804 0.482353 153 0 0
-0.0452206 0.100804 0.482353 153 0 0
-0.0442785 0.100804 0.482353 153 0 0
-0.0429841 0.0999847 0.478431 153 0 0
-0.0420496 0.0999847 0.478431 153 0 0
-0.0411152 0.0999847 0.478431 153 0 0
-0.0401808 0.0999847 0.478431 153 0 0
-0.0389246 0.0991651 0.47451 153 0 0
-0.0379979 0.0991651 0.47451 153 0 0
-0.0370711 0.0991651 0.47451 153 0 0
-0.0358456 0.0983456 0.470588 153 0 0
-0.0349265 0.0983456 0.470588 153 0 0
-0.0340074 0.0983456 0.470588 153 0 0
-0.0330882 0.0983456 0.470588 153 0 0
-0.031901 0.097526 0.466667 153 0 0
-0.0309896 0.097526 0.466667 153 0 0
-0.0300781 0.097526 0.466667 153 0 0
-0.0291667 0.097526 0.466667 153 0 0
-0.0280178 0.0967065 0.462745 153 0 0
-0.027114 0.0967065 0.462745 153 0 0
-0.0262102 0.0967065 0.462745 153 0 0
-0.0253064 0.0967065 0.462745 153 0 0
-0.0241958 0.0958869 0.458824 153 0 0
-0.0232996 0.0958869 0.458824 153 0 0
-0.0224035 0.0958869 0.458824 153 0 0
-0.0215074 0.0958869 0.458824 153 0 0
-0.020435 0.0950674 0.454902 153 0 0
-0.0195466 0.0950674 0.454902 153 0 0
-0.0186581 0.0950674 0.454902 153 0 0
-0.0177696 0.0950674 0.454902 153 0 0
-0.0167356 0.0942479 0.45098 153 0 0
-0.0158548 0.0942479 0.45098 153 0 0
-0.014974 0.0942479 0.45098 153 0 0
-0.0140931 0.0942479 0.45098 153 0 0
-0.0130974 0.0934283 0.447059 153 0 0
-0.0122243 0.0934283 0.447059 153 0 0
-0.0113511 0.0934283 0.447059 153 0 0
-0.0102022 0.0909697 0.435294 153 0 0
-0.00935202 0.0909697 0.435294 153 0 0
-0.00850184 0.0909697 0.435294 153 0 0
-0.00758272 0.0901501 0.431373 153 0 0
-0.0067402 0.0901501 0.431373 153 0 0
-0.00589767 0.0901501 0.431373 153 0 0
-0.00505515 0.0901501 0.431373 153 0 0
-0.00417433 0.0893306 0.427451 153 0 0
-0.00343137 0.0917892 0.439216 153 0 0
-0.00257353 0.0917892 0.439216 153 0 0
-0.00170037 0.0909697 0.435294 153 0 0
-0.000850184 0.0909697 0.435294 153 0 0
0 0.0909697 0.435294 153 0 0
0.000850184 0.0909697 0.435294 153 0 0
0.00168505 0.0901501 0.431373 153 0 0
0.00252757 0.0901501 0.431373 153 0 0
0.0033701 0.0901501 0.431373 153 0 0
0.00421262 0.0901501 0.431373 153 0 0
0.00505515 0.0901501 0.431373 153 0 0
0.00584406 0.0893306 0.427451 153 0 0
0.00667892 0.0893306 0.427451 153 0 0
0.00751379 0.0893306 0.427451 153 0 0
0.00834865 0.0893306 0.427451 153 0 0
0.00918352 0.0893306 0.427451 153 0 0
0.00992647 0.088511 0.423529 153 0 0
0.0107537 0.088511 0.423529 153 0 0
0.0115809 0.088511 0.423529 153 0 0
0.0120634 0.0860524 0.411765 153 0 0
0.0128676 0.0860524 0.411765 153 0 0
0.0136719 0.0860524 0.411765 153 0 0
0.0143382 0.0852328 0.407843 153 0 0
0.0151348 0.0852328 0.407843 153 0 0
0.0159314 0.0852328 0.407843 153 0 0
0.0167279 0.0852328 0.407843 153 0 0
0.0175245 0.0852328 0.407843 153 0 0
0.0181449 0.0844133 0.403922 153 0 0
0.0189338 0.0844133 0.403922 153 0 0
0.0197227 0.0844133 0.403922 153 0 0
0.0205116 0.0844133 0.403922 153 0 0
0.0213006 0.0844133 0.403922 153 0 0
0.021875 0.0835938 0.4 153 0 0
0.0226563 0.0835938 0.4 153 0 0
0.0234375 0.0835938 0.4 153 0 0
0.0242188 0.0835938 0.4 153 0 0
0.025 0.0835938 0.4 153 0 0
0.0255285 0.0827742 0.396078 153 0 0
0.0263021 0.0827742 0.396078 153 0 0
0.0270757 0.0827742 0.396078 153 0 0
0.0278493 0.0827742 0.396078 153 0 0
0.0286229 0.0827742 0.396078 153 0 0
0.0293964 0.0827742 0.396078 153 0 0
0.0298713 0.0819547 0.392157 153 0 0
0.0306373 0.0819547 0.392157 153 0 0
0.0314032 0.0819547 0.392157 153 0 0
0.0321691 0.0819547 0.392157 153 0 0
0.032935 0.0819547 0.392157 153 0 0
0.033364 0.0811351 0.388235 153 0 0
0.0341222 0.0811351 0.388235 153 0 0
0.0348805 0.0811351 0.388235 153 0 0
0.0356388 0.0811351 0.388235 153 0 0
0.0363971 0.0811351 0.388235 153 0 0
0.0371553 0.0811351 0.388235 153 0 0
0.0382966 0.0819547 0.392157 153 0 0
0.0394531 0.0827742 0.396078 153 0 0
0.040625 0.0835938 0.4 153 0 0
0.0418122 0.0844133 0.403922 153 0 0
0.0430147 0.0852328 0.407843 153 0 0
0.0442325 0.0860524 0.411765 153 0 0
0.0454657 0.0868719 0.415686 153 0 0
0.0467142 0.0876915 0.419608 153 0 0
0.0479779 0.088511 0.423529 153 0 0
0.049257 0.0893306 0.427451 153 0 0
0.0505515 0.0901501 0.431373 153 0 0
0.0551317 0.0967065 0.462745 153 0 0
0.0565104 0.097526 0.466667 153 0 0
0.0579044 0.0983456 0.470588 153 0 0
0.0598039 0.0999847 0.478431 153 0 0
0.0612362 0.100804 0.482353 153 0 0
0.0626838 0.101624 0.486275 153 0 0
0.0641468 0.102443 0.490196 153 0 0
0.065625 0.103263 0.494118 242 0 0
0.0665901 0.103263 0.494118 242 0 0
0.0675551 0.103263 0.494118 242 0 0
0.069064 0.104082 0.498039 242 0 0
0.0700368 0.104082 0.498039 242 0 0
0.0710095 0.104082 0.498039 242 0 0
0.0719822 0.104082 0.498039 153 0 0
0.0735294 0.104902 0.501961 153 0 0
0.075674 0.106541 0.509804 153 0 0
0.0772595 0.107361 0.513726 153 0 0
0.0794577 0.109 0.521569 153 0 0
0.0810815 0.109819 0.52549 153 0 0
-0.0964767 0.110846 0.52549 153 0 0
-0.0954504 0.110846 0.52549 153 0 0
-0.094424 0.110846 0.52549 153 0 0
-0.0927007 0.110018 0.521569 153 0 0
-0.091682 0.110018 0.521569 153 0 0
-0.0906633 0.110018 0.521569 153 0 0
-0.0889706 0.109191 0.517647 153 0 0
-0.0879596 0.109191 0.517647 153 0 0
-0.0869485 0.109191 0.517647 153 0 0
-0.0852865 0.108364 0.513726 153 0 0
-0.0842831 0.108364 0.513726 153 0 0
-0.0832797 0.108364 0.513726 153 0 0
-0.0816483 0.107537 0.509804 153 0 0
-0.0806526 0.107537 0.509804 153 0 0
-0.0796569 0.107537 0.509804 153 0 0
-0.0780561 0.10671 0.505882 153 0 0
-0.077068 0.10671 0.505882 153 0 0
-0.07608 0.10671 0.505882 153 0 0
-0.0745098 0.105882 0.501961 153 0 0
-0.0735294 0.105882 0.501961 153 0 0
-0.072549 0.105882 0.501961 153 0 0
-0.0710095 0.105055 0.498039 239 0 0
-0.0700368 0.105055 0.498039 239 0 0
-0.069064 0.105055 0.498039 239 0 0
-0.0680913 0.105055 0.498039 239 0 0
-0.0671186 0.105055 0.498039 239 0 0
-0.0661458 0.105055 0.498039 239 0 0
-0.0651731 0.105055 0.498039 239 0 0
-0.0642004 0.105055 0.498039 239 0 0
-0.0632276 0.105055 0.498039 239 0 0
-0.0622549 0.105055 0.498039 239 0 0
-0.0612822 0.105055 0.498039 239 0 0
-0.0603094 0.105055 0.498039 153 0 0
-0.0593367 0.105055 0.498039 153 0 0
-0.058364 0.105055 0.498039 153 0 0
-0.0569393 0.104228 0.494118 153 0 0
-0.0559743 0.104228 0.494118 153 0 0
-0.0550092 0.104228 0.494118 153 0 0
-0.0536152 0.103401 0.490196 153 0 0
-0.0526578 0.103401 0.490196 153 0 0
-0.0517004 0.103401 0.490196 153 0 0
-0.050743 0.103401 0.490196 153 0 0
-0.0493873 0.102574 0.486275 153 0 0
-0.0484375 0.102574 0.486275 153 0 0
-0.0474877 0.102574 0.486275 153 0 0
-0.046538 0.102574 0.486275 153 0 0
-0.0452206 0.101746 0.482353 153 0 0
-0.0442785 0.101746 0.482353 153 0 0
-0.0433364 0.101746 0.482353 153 0 0
-0.0420496 0.100919 0.478431 153 0 0
-0.0411152 0.100919 0.478431 153 0 0
-0.0401808 0.100919 0.478431 153 0 0
-0.0392463 0.100919 0.478431 153 0 0
-0.0379979 0.100092 0.47451 153 0 0
-0.0370711 0.100092 0.47451 153 0 0
-0.0361443 0.100092 0.47451 153 0 0
-0.0352175 0.100092 0.47451 153 0 0
-0.0340074 0.0992647 0.470588 153 0 0
-0.0330882 0.0992647 0.470588 153 0 0
-0.0321691 0.0992647 0.470588 153 0 0
-0.0309896 0.0984375 0.466667 153 0 0
-0.0300781 0.0984375 0.466667 153 0 0
-0.0291667 0.0984375 0.466667 153 0 0
-0.0282552 0.0984375 0.466667 153 0 0
-0.027114 0.0976103 0.462745 153 0 0
-0.0262102 0.0976103 0.462745 153 0 0
-0.0253064 0.0976103 0.462745 153 0 0
-0.0244026 0.0976103 0.462745 153 0 0
-0.0232996 0.0967831 0.458824 153 0 0
-0.0224035 0.0967831 0.458824 153 0 0
-0.0215074 0.0967831 0.458824 153 0 0
-0.0206112 0.0967831 0.458824 153 0 0
-0.0195466 0.0959559 0.454902 153 0 0
-0.0186581 0.0959559 0.454902 153 0 0
-0.0177696 0.0959559 0.454902 153 0 0
-0.0168811 0.0959559 0.454902 153 0 0
-0.0158548 0.0951287 0.45098 153 0 0
-0.014974 0.0951287 0.45098 153 0 0
-0.0140931 0.0951287 0.45098 153 0 0
-0.0132123 0.0951287 0.45098 153 0 0
-0.0122243 0.0943015 0.447059 153 0 0
-0.011152 0.0926471 0.439216 153 0 0
-0.0102022 0.0918199 0.435294 153 0 0
-0.00935202 0.0918199 0.435294 153 0 0
-0.00850184 0.0918199 0.435294 153 0 0
-0.00765165 0.0918199 0.435294 153 0 0
-0.0067402 0.0909926 0.431373 153 0 0
-0.00589767 0.0909926 0.431373 153 0 0
-0.00505515 0.0909926 0.431373 153 0 0
-0.00428922 0.0926471 0.439216 153 0 0
-0.00343137 0.0926471 0.439216 153 0 0
-0.00257353 0.0926471 0.439216 153 0 0
-0.00171569 0.0926471 0.439216 153 0 0
-0.000850184 0.0918199 0.435294 153 0 0
0 0.0918199 0.435294 153 0 0
0.000850184 0.0918199 0.435294 153 0 0
0.00170037 0.0918199 0.435294 153 0 0
0.00255055 0.0918199 0.435294 153 0 0
0.0033701 0.0909926 0.431373 153 0 0
0.00421262 0.0909926 0.431373 153 0 0
0.00505515 0.0909926 0.431373 153 0 0
0.00589767 0.0909926 0.431373 153 0 0
0.00667892 0.0901654 0.427451 153 0 0
0.00751379 0.0901654 0.427451 153 0 0
0.00834865 0.0901654 0.427451 153 0 0
0.00918352 0.0901654 0.427451 153 0 0
0.0100184 0.0901654 0.427451 153 0 0
0.0107537 0.0893382 0.423529 153 0 0
0.0115809 0.0893382 0.423529 153 0 0
0.0120634 0.0868566 0.411765 153 0 0
0.0128676 0.0868566 0.411765 153 0 0
0.0136719 0.0868566 0.411765 153 0 0
0.0144761 0.0868566 0.411765 153 0 0
0.0152803 0.0868566 0.411765 153 0 0
0.0159314 0.0860294 0.407843 153 0 0
0.0167279 0.0860294 0.407843 153 0 0
0.0175245 0.0860294 0.407843 153 0 0
0.0183211 0.0860294 0.407843 153 0 0
0.0189338 0.0852022 0.403922 153 0 0
0.0197227 0.0852022 0.403922 153 0 0
0.0205116 0.0852022 0.403922 153 0 0
0.0213006 0.0852022 0.403922 153 0 0
0.0220895 0.0852022 0.403922 153 0 0
0.0228784 0.0852022 0.403922 153 0 0
0.0234375 0.084375 0.4 153 0 0
0.0242188 0.084375 0.4 153 0 0
0.025 0.084375 0.4 153 0 0
0.0257813 0.084375 0.4 153 0 0
0.0265625 0.084375 0.4 153 0 0
0.0270757 0.0835478 0.396078 153 0 0
0.0278493 0.0835478 0.396078 153 0 0
0.0286229 0.0835478 0.396078 153 0 0
0.0293964 0.0835478 0.396078 153 0 0
0.03017 0.0835478 0.396078 153 0 0
0.0306373 0.0827206 0.392157 153 0 0
0.0314032 0.0827206 0.392157 153 0 0
0.0321691 0.0827206 0.392157 153 0 0
0.032935 0.0827206 0.392157 153 0 0
0.033701 0.0827206 0.392157 153 0 0
0.0341222 0.0818934 0.388235 153 0 0
0.0348805 0.0818934 0.388235 153 0 0
0.0356388 0.0818934 0.388235 153 0 0
0.0363971 0.0818934 0.388235 153 0 0
0.0375306 0.0827206 0.392157 153 0 0
0.0386795 0.0835478 0.396078 153 0 0
0.0394531 0.0835478 0.396078 153 0 0
0.040625 0.084375 0.4 153 0 0
0.0418122 0.0852022 0.403922 153 0 0
0.0430147 0.0860294 0.407843 153 0 0
0.0442325 0.0868566 0.411765 153 0 0
0.0454657 0.0876838 0.415686 153 0 0
0.0467142 0.088511 0.419608 153 0 0
0.0479779 0.0893382 0.423529 153 0 0
0.049257 0.0901654 0.427451 153 0 0
0.0537684 0.0967831 0.458824 153 0 0
0.055599 0.0984375 0.466667 153 0 0
0.0569853 0.0992647 0.470588 153 0 0
0.0583869 0.100092 0.47451 153 0 0
0.0598039 0.100919 0.478431 153 0 0
0.0612362 0.101746 0.482353 153 0 0
0.0631893 0.103401 0.490196 153 0 0
0.0646599 0.104228 0.494118 153 0 0
0.065625 0.104228 0.494118 242 0 0
0.0665901 0.104228 0.494118 242 0 0
0.0675551 0.104228 0.494118 242 0 0
0.0685202 0.104228 0.494118 242 0 0
0.0694853 0.104228 0.494118 242 0 0
0.0704504 0.104228 0.494118 242 0 0
0.0719822 0.105055 0.498039 153 0 0
0.0741039 0.10671 0.505882 153 0 0
0.075674 0.107537 0.509804 153 0 0
0.0778493 0.109191 0.517647 153 0 0
0.0794577 0.110018 0.521569 153 0 0
-0.094424 0.111872 0.52549 153 0 0
-0.0933977 0.111872 0.52549 153 0 0
-0.091682 0.111037 0.521569 153 0 0
-0.0906633 0.111037 0.521569 153 0 0
-0.0896446 0.111037 0.521569 153 0 0
-0.0879596 0.110202 0.517647 153 0 0
-0.0869485 0.110202 0.517647 153 0 0
-0.0859375 0.110202 0.517647 153 0 0
-0.0842831 0.109367 0.513726 153 0 0
-0.0832797 0.109367 0.513726 153 0 0
-0.0822764 0.109367 0.513726 153 0 0
-0.0806526 0.108532 0.509804 153 0 0
-0.0796569 0.108532 0.509804 153 0 0
-0.0786612 0.108532 0.509804 153 0 0
-0.077068 0.107698 0.505882 153 0 0
-0.07608 0.107698 0.505882 153 0 0
-0.0750919 0.107698 0.505882 153 0 0
-0.0735294 0.106863 0.501961 153 0 0
-0.072549 0.106863 0.501961 153 0 0
-0.0715686 0.106863 0.501961 153 0 0
-0.0705882 0.106863 0.501961 153 0 0
-0.069064 0.106028 0.498039 239 0 0
-0.0680913 0.106028 0.498039 239 0 0
-0.0671186 0.106028 0.498039 239 0 0
-0.0661458 0.106028 0.498039 239 0 0
-0.0651731 0.106028 0.498039 239 0 0
-0.0642004 0.106028 0.498039 239 0 0
-0.0632276 0.106028 0.498039 239 0 0
-0.0622549 0.106028 0.498039 239 0 0
-0.0612822 0.106028 0.498039 239 0 0
-0.0603094 0.106028 0.498039 239 0 0
-0.0593367 0.106028 0.498039 239 0 0
-0.058364 0.106028 0.498039 153 0 0
-0.0573912 0.106028 0.498039 153 0 0
-0.0559743 0.105193 0.494118 153 0 0
-0.0550092 0.105193 0.494118 153 0 0
-0.0540441 0.105193 0.494118 153 0 0
-0.053079 0.105193 0.494118 153 0 0
-0.0517004 0.104358 0.490196 153 0 0
-0.050743 0.104358 0.490196 153 0 0
-0.0497855 0.104358 0.490196 153 0 0
-0.0484375 0.103523 0.486275 153 0 0
-0.0474877 0.103523 0.486275 153 0 0
-0.046538 0.103523 0.486275 153 0 0
-0.0455882 0.103523 0.486275 153 0 0
-0.0442785 0.102688 0.482353 153 0 0
-0.0433364 0.102688 0.482353 153 0 0
-0.0423943 0.102688 0.482353 153 0 0
-0.0411152 0.101854 0.478431 153 0 0
-0.0401808 0.101854 0.478431 153 0 0
-0.0392463 0.101854 0.478431 153 0 0
-0.0383119 0.101854 0.478431 153 0 0
-0.0370711 0.101019 0.47451 153 0 0
-0.0361443 0.101019 0.47451 153 0 0
-0.0352175 0.101019 0.47451 153 0 0
-0.0342907 0.101019 0.47451 153 0 0
-0.0330882 0.100184 0.470588 153 0 0
-0.0321691 0.100184 0.470588 153 0 0
-0.03125 0.100184 0.470588 153 0 0
-0.0303309 0.100184 0.470588 153 0 0
-0.0291667 0.099349 0.466667 153 0 0
-0.0282552 0.099349 0.466667 153 0 0
-0.0273438 0.099349 0.466667 153 0 0
-0.0262102 0.0985141 0.462745 153 0 0
-0.0253064 0.0985141 0.462745 153 0 0
-0.0244026 0.0985141 0.462745 153 0 0
-0.0234988 0.0985141 0.462745 153 0 0
-0.0224035 0.0976792 0.458824 153 0 0
-0.0215074 0.0976792 0.458824 153 0 0
-0.0206112 0.0976792 0.458824 153 0 0
-0.0197151 0.0976792 0.458824 153 0 0
-0.0186581 0.0968444 0.454902 153 0 0
-0.0177696 0.0968444 0.454902 153 0 0
-0.0168811 0.0968444 0.454902 153 0 0
-0.0159926 0.0968444 0.454902 153 0 0
-0.014974 0.0960095 0.45098 153 0 0
-0.0140931 0.0960095 0.45098 153 0 0
-0.0132123 0.0960095 0.45098 153 0 0
-0.0123315 0.0960095 0.45098 153 0 0
-0.011152 0.0935049 0.439216 153 0 0
-0.0102941 0.0935049 0.439216 153 0 0
-0.00935202 0.09267 0.435294 153 0 0
-0.00850184 0.09267 0.435294 153 0 0
-0.00765165 0.09267 0.435294 153 0 0
-0.00680147 0.09267 0.435294 153 0 0
-0.00589767 0.0918352 0.431373 153 0 0
-0.00519301 0.0943398 0.443137 153 0 0
-0.00432751 0.0943398 0.443137 153 0 0
-0.00343137 0.0935049 0.439216 153 0 0
-0.00257353 0.0935049 0.439216 153 0 0
-0.00171569 0.0935049 0.439216 153 0 0
-0.000857843 0.0935049 0.439216 153 0 0
0 0.09267 0.435294 153 0 0
0.000850184 0.09267 0.435294 153 0 0
0.00170037 0.09267 0.435294 153 0 0
0.00255055 0.09267 0.435294 153 0 0
0.00340074 0.09267 0.435294 153 0 0
0.00421262 0.0918352 0.431373 153 0 0
0.00505515 0.0918352 0.431373 153 0 0
0.00589767 0.0918352 0.431373 153 0 0
0.0067402 0.0918352 0.431373 153 0 0
0.00751379 0.0910003 0.427451 153 0 0
0.00834865 0.0910003 0.427451 153 0 0
0.00918352 0.0910003 0.427451 153 0 0
0.0100184 0.0910003 0.427451 153 0 0
0.0108532 0.0910003 0.427451 153 0 0
0.0115809 0.0901654 0.423529 153 0 0
0.0124081 0.0901654 0.423529 153 0 0
0.0128676 0.0876608 0.411765 153 0 0
0.0136719 0.0876608 0.411765 153 0 0
0.0144761 0.0876608 0.411765 153 0 0
0.0152803 0.0876608 0.411765 153 0 0
0.0160846 0.0876608 0.411765 153 0 0
0.0167279 0.086826 0.407843 153 0 0
0.0175245 0.086826 0.407843 153 0 0
0.0183211 0.086826 0.407843 153 0 0
0.0191176 0.086826 0.407843 153 0 0
0.0199142 0.086826 0.407843 153 0 0
0.0205116 0.0859911 0.403922 153 0 0
0.0213006 0.0859911 0.403922 153 0 0
0.0220895 0.0859911 0.403922 153 0 0
0.0228784 0.0859911 0.403922 153 0 0
0.0236673 0.0859911 0.403922 153 0 0
0.0242188 0.0851563 0.4 153 0 0
0.025 0.0851563 0.4 153 0 0
0.0257813 0.0851563 0.4 153 0 0
0.0265625 0.0851563 0.4 153 0 0
0.0273438 0.0851563 0.4 153 0 0
0.0278493 0.0843214 0.396078 153 0 0
0.0286229 0.0843214 0.396078 153 0 0
0.0293964 0.0843214 0.396078 153 0 0
0.03017 0.0843214 0.396078 153 0 0
0.0309436 0.0843214 0.396078 153 0 0
0.0314032 0.0834865 0.392157 153 0 0
0.0321691 0.0834865 0.392157 153 0 0
0.032935 0.0834865 0.392157 153 0 0
0.033701 0.0834865 0.392157 153 0 0
0.0344669 0.0834865 0.392157 153 0 0
0.0348805 0.0826517 0.388235 153 0 0
0.0356388 0.0826517 0.388235 153 0 0
0.0363971 0.0826517 0.388235 153 0 0
0.0375306 0.0834865 0.392157 153 0 0
0.0386795 0.0843214 0.396078 153 0 0
0.0398438 0.0851563 0.4 153 0 0
0.0410233 0.0859911 0.403922 153 0 0
0.0422181 0.086826 0.407843 153 0 0
0.0434283 0.0876608 0.411765 153 0 0
0.0446538 0.0884957 0.415686 153 0 0
0.0458946 0.0893306 0.419608 153 0 0
0.0471507 0.0901654 0.423529 153 0 0
0.0484222 0.0910003 0.427451 153 0 0
0.0497089 0.0918352 0.431373 153 0 0
0.0542279 0.0985141 0.462745 153 0 0
0.055599 0.099349 0.466667 153 0 0
0.0569853 0.100184 0.470588 153 0 0
0.0583869 0.101019 0.47451 153 0 0
0.0602941 0.102688 0.482353 153 0 0
0.0617341 0.103523 0.486275 153 0 0
0.0631893 0.104358 0.490196 153 0 0
0.0646599 0.105193 0.494118 242 0 0
0.065625 0.105193 0.494118 242 0 0
0.0665901 0.105193 0.494118 242 0 0
0.0675551 0.105193 0.494118 242 0 0
0.0685202 0.105193 0.494118 242 0 0
0.0694853 0.105193 0.494118 242 0 0
0.0704504 0.105193 0.494118 153 0 0
0.072549 0.106863 0.501961 153 0 0
0.0741039 0.107698 0.505882 153 0 0
0.0762561 0.109367 0.513726 153 0 0
0.0778493 0.110202 0.517647 153 0 0
0.0800552 0.111872 0.52549 153 0 0
-0.0923713 0.112898 0.52549 153 0 0
-0.0906633 0.112056 0.521569 153 0 0
-0.0896446 0.112056 0.521569 153 0 0
-0.0886259 0.112056 0.521569 153 0 0
-0.0869485 0.111213 0.517647 153 0 0
-0.0859375 0.111213 0.517647 153 0 0
-0.0849265 0.111213 0.517647 153 0 0
-0.0832797 0.110371 0.513726 153 0 0
-0.0822764 0.110371 0.513726 153 0 0
-0.081273 0.110371 0.513726 153 0 0
-0.0796569 0.109528 0.509804 153 0 0
-0.0786612 0.109528 0.509804 153 0 0
-0.0776654 0.109528 0.509804 153 0 0
-0.07608 0.108686 0.505882 153 0 0
-0.0750919 0.108686 0.505882 153 0 0
-0.0741039 0.108686 0.505882 153 0 0
-0.0731158 0.108686 0.505882 153 0 0
-0.0715686 0.107843 0.501961 153 0 0
-0.0705882 0.107843 0.501961 153 0 0
-0.0696078 0.107843 0.501961 153 0 0
-0.0680913 0.107001 0.498039 153 0 0
-0.0671186 0.107001 0.498039 239 0 0
-0.0661458 0.107001 0.498039 239 0 0
-0.0651731 0.107001 0.498039 239 0 0
-0.0642004 0.107001 0.498039 239 0 0
-0.0632276 0.107001 0.498039 239 0 0
-0.0622549 0.107001 0.498039 239 0 0
-0.0612822 0.107001 0.498039 239 0 0
-0.0603094 0.107001 0.498039 239 0 0
-0.0593367 0.107001 0.498039 239 0 0
-0.058364 0.107001 0.498039 239 0 0
-0.0573912 0.107001 0.498039 239 0 0
-0.0564185 0.107001 0.498039 153 0 0
-0.0550092 0.106158 0.494118 153 0 0
-0.0540441 0.106158 0.494118 153 0 0
-0.053079 0.106158 0.494118 153 0 0
-0.052114 0.106158 0.494118 153 0 0
-0.050743 0.105316 0.490196 153 0 0
-0.0497855 0.105316 0.490196 153 0 0
-0.0488281 0.105316 0.490196 153 0 0
-0.0474877 0.104473 0.486275 153 0 0
-0.046538 0.104473 0.486275 153 0 0
-0.0455882 0.104473 0.486275 153 0 0
-0.0446385 0.104473 0.486275 153 0 0
-0.0433364 0.103631 0.482353 153 0 0
-0.0423943 0.103631 0.482353 153 0 0
-0.0414522 0.103631 0.482353 153 0 0
-0.0405101 0.103631 0.482353 153 0 0
-0.0392463 0.102788 0.478431 153 0 0
-0.0383119 0.102788 0.478431 153 0 0
-0.0373775 0.102788 0.478431 153 0 0
-0.0361443 0.101945 0.47451 153 0 0
-0.0352175 0.101945 0.47451 153 0 0
-0.0342907 0.101945 0.47451 153 0 0
-0.033364 0.101945 0.47451 153 0 0
-0.0321691 0.101103 0.470588 153 0 0
-0.03125 0.101103 0.470588 153 0 0
-0.0303309 0.101103 0.470588 153 0 0
-0.0294118 0.101103 0.470588 153 0 0
-0.0282552 0.10026 0.466667 153 0 0
-0.0273438 0.10026 0.466667 153 0 0
-0.0264323 0.10026 0.466667 153 0 0
-0.0255208 0.10026 0.466667 153 0 0
-0.0244026 0.0994179 0.462745 153 0 0
-0.0234988 0.0994179 0.462745 153 0 0
-0.022595 0.0994179 0.462745 153 0 0
-0.0216912 0.0994179 0.462745 153 0 0
-0.0206112 0.0985754 0.458824 153 0 0
-0.0197151 0.0985754 0.458824 153 0 0
-0.0188189 0.0985754 0.458824 153 0 0
-0.0179228 0.0985754 0.458824 153 0 0
-0.0168811 0.0977328 0.454902 153 0 0
-0.0159926 0.0977328 0.454902 153 0 0
-0.0151042 0.0977328 0.454902 153 0 0
-0.0142157 0.0977328 0.454902 153 0 0
-0.0132123 0.0968903 0.45098 153 0 0
-0.0123315 0.0968903 0.45098 153 0 0
-0.011152 0.0943627 0.439216 153 0 0
-0.0102941 0.0943627 0.439216 153 0 0
-0.00943627 0.0943627 0.439216 153 0 0
-0.00850184 0.0935202 0.435294 153 0 0
-0.00765165 0.0935202 0.435294 153 0 0
-0.00680147 0.0935202 0.435294 153 0 0
-0.00595129 0.0935202 0.435294 153 0 0
-0.00519301 0.0952053 0.443137 153 0 0
-0.00432751 0.0952053 0.443137 153 0 0
-0.00346201 0.0952053 0.443137 153 0 0
-0.00257353 0.0943627 0.439216 153 0 0
-0.00171569 0.0943627 0.439216 153 0 0
-0.000857843 0.0943627 0.439216 153 0 0
0 0.0943627 0.439216 153 0 0
0.000857843 0.0943627 0.439216 153 0 0
0.00170037 0.0935202 0.435294 153 0 0
0.00255055 0.0935202 0.435294 153 0 0
0.00340074 0.0935202 0.435294 153 0 0
0.00425092 0.0935202 0.435294 153 0 0
0.00505515 0.0926777 0.431373 153 0 0
0.00589767 0.0926777 0.431373 153 0 0
0.0067402 0.0926777 0.431373 153 0 0
0.00758272 0.0926777 0.431373 153 0 0
0.00842525 0.0926777 0.431373 153 0 0
0.00918352 0.0918352 0.427451 153 0 0
0.0100184 0.0918352 0.427451 153 0 0
0.0108532 0.0918352 0.427451 153 0 0
0.0116881 0.0918352 0.427451 153 0 0
0.0124081 0.0909926 0.423529 153 0 0
0.0129902 0.0893076 0.415686 153 0 0
0.0136719 0.0884651 0.411765 153 0 0
0.0144761 0.0884651 0.411765 153 0 0
0.0152803 0.0884651 0.411765 153 0 0
0.0160846 0.0884651 0.411765 153 0 0
0.0168888 0.0884651 0.411765 153 0 0
0.0175245 0.0876226 0.407843 153 0 0
0.0183211 0.0876226 0.407843 153 0 0
0.0191176 0.0876226 0.407843 153 0 0
0.0199142 0.0876226 0.407843 153 0 0
0.0207108 0.0876226 0.407843 153 0 0
0.0213006 0.08678 0.403922 153 0 0
0.0220895 0.08678 0.403922 153 0 0
0.0228784 0.08678 0.403922 153 0 0
0.0236673 0.08678 0.403922 153 0 0
0.0244562 0.08678 0.403922 153 0 0
0.025 0.0859375 0.4 153 0 0
0.0257813 0.0859375 0.4 153 0 0
0.0265625 0.0859375 0.4 153 0 0
0.0273438 0.0859375 0.4 153 0 0
0.028125 0.0859375 0.4 153 0 0
0.0286229 0.085095 0.396078 153 0 0
0.0293964 0.085095 0.396078 153 0 0
0.03017 0.085095 0.396078 153 0 0
0.0309436 0.085095 0.396078 153 0 0
0.0317172 0.085095 0.396078 153 0 0
0.0321691 0.0842525 0.392157 153 0 0
0.032935 0.0842525 0.392157 153 0 0
0.033701 0.0842525 0.392157 153 0 0
0.0344669 0.0842525 0.392157 153 0 0
0.0352328 0.0842525 0.392157 153 0 0
0.0359988 0.0842525 0.392157 153 0 0
0.0363971 0.0834099 0.388235 153 0 0
0.0375306 0.0842525 0.392157 153 0 0
0.0386795 0.085095 0.396078 153 0 0
0.0398438 0.0859375 0.4 153 0 0
0.0410233 0.08678 0.403922 153 0 0
0.0422181 0.0876226 0.407843 153 0 0
0.0434283 0.0884651 0.411765 153 0 0
0.0446538 0.0893076 0.415686 153 0 0
0.0458946 0.0901501 0.419608 153 0 0
0.0471507 0.0909926 0.423529 153 0 0
0.0484222 0.0918352 0.427451 153 0 0
0.0497089 0.0926777 0.431373 153 0 0
0.0542279 0.0994179 0.462745 153 0 0
0.055599 0.10026 0.466667 153 0 0
0.0574602 0.101945 0.47451 153 0 0
0.0588695 0.102788 0.478431 153 0 0
0.0602941 0.103631 0.482353 153 0 0
0.0617341 0.104473 0.486275 153 0 0
0.0631893 0.105316 0.490196 242 0 0
0.0641468 0.105316 0.490196 242 0 0
0.0651042 0.105316 0.490196 242 0 0
0.0660616 0.105316 0.490196 242 0 0
0.0675551 0.106158 0.494118 242 0 0
0.0685202 0.106158 0.494118 242 0 0
0.0694853 0.106158 0.494118 153 0 0
0.0710095 0.107001 0.498039 153 0 0
0.072549 0.107843 0.501961 153 0 0
0.0746783 0.109528 0.509804 153 0 0
0.0762561 0.110371 0.513726 153 0 0
0.078439 0.112056 0.521569 153 0 0
-0.0896446 0.113074 0.521569 153 0 0
-0.0886259 0.113074 0.521569 153 0 0
-0.0876072 0.113074 0.521569 153 0 0
-0.0859375 0.112224 0.517647 153 0 0
-0.0849265 0.112224 0.517647 153 0 0
-0.0839154 0.112224 0.517647 153 0 0
-0.0822764 0.111374 0.513726 153 0 0
-0.081273 0.111374 0.513726 153 0 0
-0.0802696 0.111374 0.513726 153 0 0
-0.0786612 0.110524 0.509804 153 0 0
-0.0776654 0.110524 0.509804 153 0 0
-0.0766697 0.110524 0.509804 153 0 0
-0.075674 0.110524 0.509804 153 0 0
-0.0741039 0.109674 0.505882 153 0 0
-0.0731158 0.109674 0.505882 153 0 0
-0.0721278 0.109674 0.505882 153 0 0
-0.0705882 0.108824 0.501961 153 0 0
-0.0696078 0.108824 0.501961 153 0 0
-0.0686275 0.108824 0.501961 153 0 0
-0.0671186 0.107973 0.498039 153 0 0
-0.0661458 0.107973 0.498039 153 0 0
-0.0651731 0.107973 0.498039 239 0 0
-0.0642004 0.107973 0.498039 239 0 0
-0.0632276 0.107973 0.498039 239 0 0
-0.0622549 0.107973 0.498039 239 0 0
-0.0612822 0.107973 0.498039 239 0 0
-0.0603094 0.107973 0.498039 239 0 0
-0.0593367 0.107973 0.498039 239 0 0
-0.058364 0.107973 0.498039 239 0 0
-0.0573912 0.107973 0.498039 239 0 0
-0.0564185 0.107973 0.498039 239 0 0
-0.0554458 0.107973 0.498039 153 0 0
-0.054473 0.107973 0.498039 153 0 0
-0.053079 0.107123 0.494118 153 0 0
-0.052114 0.107123 0.494118 153 0 0
-0.0511489 0.107123 0.494118 153 0 0
-0.0497855 0.106273 0.490196 153 0 0
-0.0488281 0.106273 0.490196 153 0 0
-0.0478707 0.106273 0.490196 153 0 0
-0.0469133 0.106273 0.490196 153 0 0
-0.0455882 0.105423 0.486275 153 0 0
-0.0446385 0.105423 0.486275 153 0 0
-0.0436887 0.105423 0.486275 153 0 0
-0.0423943 0.104573 0.482353 153 0 0
-0.0414522 0.104573 0.482353 153 0 0
-0.0405101 0.104573 0.482353 153 0 0
-0.039568 0.104573 0.482353 153 0 0
