ply
format ascii 1.0
comment Created by Open3D
element vertex 1267
property double x
property double y
property double z
property uchar red
property uchar green
property uchar blue
end_header
-0.0275735 0.311417 -0.256748 239 0 0
-0.0275735 0.310876 -0.256207 239 0 0
-0.0275735 0.310334 -0.255665 239 0 0
-0.0275735 0.309792 -0.255123 239 0 0
-0.0275735 0.309251 -0.254582 239 0 0
-0.0272978 0.305622 -0.256499 153 0 0
-0.0272978 0.305086 -0.255963 153 0 0
-0.0272978 0.30455 -0.255427 153 0 0
-0.0270221 0.300943 -0.257366 153 0 0
-0.0270221 0.300412 -0.256835 239 0 0
-0.0270221 0.299881 -0.256304 239 0 0
-0.0270221 0.299351 -0.255773 239 0 0
-0.0270221 0.29882 -0.255243 239 0 0
-0.0270221 0.298289 -0.254712 239 0 0
-0.0270221 0.297758 -0.254181 239 0 0
-0.0270221 0.297227 -0.25365 239 0 0
-0.0270221 0.296697 -0.25312 239 0 0
-0.0270221 0.296166 -0.252589 239 0 0
-0.0270221 0.295635 -0.252058 239 0 0
-0.0270221 0.295104 -0.251527 239 0 0
-0.0270221 0.294574 -0.250997 239 0 0
-0.0270221 0.294043 -0.250466 239 0 0
-0.0270221 0.293512 -0.249935 239 0 0
-0.0270221 0.292981 -0.249404 239 0 0
-0.0270221 0.292451 -0.248873 239 0 0
-0.0270221 0.29192 -0.248343 239 0 0
-0.0270221 0.291389 -0.247812 239 0 0
-0.0270221 0.290858 -0.247281 239 0 0
-0.0270221 0.290328 -0.24675 239 0 0
-0.0270221 0.289797 -0.24622 239 0 0
-0.0270221 0.289266 -0.245689 239 0 0
-0.0270221 0.288735 -0.245158 239 0 0
-0.0270221 0.288205 -0.244627 239 0 0
-0.0270221 0.287674 -0.244097 239 0 0
-0.0270221 0.287143 -0.243566 239 0 0
-0.0270221 0.286612 -0.243035 239 0 0
-0.0270221 0.286081 -0.242504 239 0 0
-0.0270221 0.285551 -0.241974 239 0 0
-0.0270221 0.28502 -0.241443 239 0 0
-0.0270221 0.284489 -0.240912 239 0 0
-0.0270221 0.283958 -0.240381 239 0 0
-0.0270221 0.283428 -0.23985 239 0 0
-0.0270221 0.282897 -0.23932 239 0 0
-0.0270221 0.282366 -0.238789 239 0 0
-0.0270221 0.281835 -0.238258 239 0 0
-0.0270221 0.281305 -0.237727 239 0 0
-0.0270221 0.280774 -0.237197 239 0 0
-0.0270221 0.280243 -0.236666 239 0 0
-0.0270221 0.279712 -0.236135 239 0 0
-0.0270221 0.279182 -0.235604 239 0 0
-0.0270221 0.278651 -0.235074 239 0 0
-0.0270221 0.27812 -0.234543 239 0 0
-0.0270221 0.277589 -0.234012 239 0 0
-0.0270221 0.277058 -0.233481 239 0 0
-0.0270221 0.276528 -0.232951 239 0 0
-0.0270221 0.275997 -0.23242 239 0 0
-0.0270221 0.275466 -0.231889 239 0 0
-0.0270221 0.274935 -0.231358 239 0 0
-0.0270221 0.274405 -0.230827 239 0 0
-0.0270221 0.273874 -0.230297 239 0 0
-0.0270221 0.273343 -0.229766 239 0 0
-0.0270221 0.272812 -0.229235 239 0 0
-0.0270221 0.272282 -0.228704 239 0 0
-0.0270221 0.271751 -0.228174 239 0 0
-0.0270221 0.27122 -0.227643 239 0 0
-0.0270221 0.270689 -0.227112 239 0 0
-0.0270221 0.270159 -0.226581 239 0 0
-0.0270221 0.269628 -0.226051 239 0 0
-0.0270221 0.269097 -0.22552 239 0 0
-0.0270221 0.268566 -0.224989 239 0 0
-0.0270221 0.268035 -0.224458 239 0 0
-0.0270221 0.267505 -0.223928 239 0 0
-0.0270221 0.266974 -0.223397 239 0 0
-0.0270221 0.266443 -0.222866 239 0 0
-0.0270221 0.265912 -0.222335 239 0 0
-0.0270221 0.265382 -0.221805 239 0 0
-0.0270221 0.264851 -0.221274 239 0 0
-0.0270221 0.26432 -0.220743 239 0 0
-0.0270221 0.263789 -0.220212 239 0 0
-0.0270221 0.263259 -0.219681 239 0 0
-0.0270221 0.262728 -0.219151 239 0 0
-0.0270221 0.262197 -0.21862 239 0 0
-0.0270221 0.261666 -0.218089 239 0 0
-0.0270221 0.261136 -0.217558 239 0 0
-0.0275735 0.265923 -0.211254 239 0 0
-0.0275735 0.265382 -0.210713 239 0 0
-0.0275735 0.26484 -0.210171 239 0 0
-0.0275735 0.264298 -0.209629 239 0 0
-0.0275735 0.263757 -0.209088 239 0 0
-0.0275735 0.263215 -0.208546 239 0 0
-0.0275735 0.262674 -0.208005 239 0 0
-0.0275735 0.262132 -0.207463 239 0 0
-0.0270221 0.256359 -0.212782 239 0 0
-0.0270221 0.255828 -0.212251 239 0 0
-0.0270221 0.255297 -0.21172 239 0 0
-0.0270221 0.254766 -0.211189 239 0 0
-0.0270221 0.254236 -0.210658 239 0 0
-0.0270221 0.253705 -0.210128 239 0 0
-0.0270221 0.253174 -0.209597 239 0 0
-0.0270221 0.252643 -0.209066 239 0 0
-0.0275735 0.257258 -0.202589 239 0 0
-0.0275735 0.256716 -0.202047 239 0 0
-0.0275735 0.256175 -0.201506 239 0 0
-0.0275735 0.255633 -0.200964 239 0 0
-0.0275735 0.255091 -0.200422 239 0 0
-0.0275735 0.25455 -0.199881 239 0 0
-0.0272978 0.251468 -0.202345 153 0 0
-0.0270221 0.248397 -0.20482 239 0 0
-0.0270221 0.247866 -0.204289 239 0 0
-0.0270221 0.247336 -0.203759 239 0 0
-0.0270221 0.246805 -0.203228 239 0 0
-0.0270221 0.246274 -0.202697 239 0 0
-0.0270221 0.245743 -0.202166 239 0 0
-0.0270221 0.245213 -0.201636 239 0 0
-0.0270221 0.244682 -0.201105 239 0 0
-0.0270221 0.244151 -0.200574 239 0 0
-0.0270221 0.24362 -0.200043 239 0 0
-0.0270221 0.24309 -0.199512 239 0 0
-0.0270221 0.242559 -0.198982 239 0 0
-0.0270221 0.242028 -0.198451 239 0 0
-0.0270221 0.241497 -0.19792 239 0 0
-0.0275735 0.245884 -0.191215 239 0 0
-0.0275735 0.245343 -0.190674 239 0 0
-0.0275735 0.244801 -0.190132 239 0 0
-0.0275735 0.244259 -0.18959 239 0 0
-0.0275735 0.243718 -0.189049 239 0 0
-0.0275735 0.243176 -0.188507 239 0 0
-0.0275735 0.242635 -0.187966 239 0 0
-0.0275735 0.242093 -0.187424 239 0 0
-0.0272978 0.239136 -0.190013 153 0 0
-0.0270221 0.23619 -0.192613 239 0 0
-0.0270221 0.235659 -0.192082 239 0 0
-0.0270221 0.235128 -0.191551 239 0 0
-0.0270221 0.234597 -0.19102 239 0 0
-0.0270221 0.234067 -0.190489 239 0 0
-0.0270221 0.233536 -0.189959 239 0 0
-0.0270221 0.233005 -0.189428 239 0 0
-0.0270221 0.232474 -0.188897 239 0 0
-0.0270221 0.231944 -0.188366 239 0 0
-0.0275735 0.236136 -0.181466 239 0 0
-0.0275735 0.235594 -0.180925 239 0 0
-0.0275735 0.235052 -0.180383 239 0 0
-0.0275735 0.234511 -0.179842 239 0 0
-0.0275735 0.233969 -0.1793 239 0 0
-0.0275735 0.233428 -0.178759 239 0 0
-0.0275735 0.232886 -0.178217 239 0 0
-0.0275735 0.232344 -0.177675 239 0 0
-0.0275735 0.231803 -0.177134 239 0 0
-0.0275735 0.231261 -0.176592 239 0 0
-0.0275735 0.23072 -0.176051 239 0 0
-0.0275735 0.230178 -0.175509 239 0 0
-0.0275735 0.229636 -0.174967 239 0 0
-0.0275735 0.229095 -0.174426 239 0 0
-0.0275735 0.228553 -0.173884 239 0 0
-0.0275735 0.228012 -0.173343 239 0 0
-0.0275735 0.22747 -0.172801 239 0 0
-0.0275735 0.226928 -0.172259 239 0 0
-0.0275735 0.226387 -0.171718 239 0 0
-0.0275735 0.225845 -0.171176 239 0 0
-0.0275735 0.225304 -0.170635 239 0 0
-0.0275735 0.224762 -0.170093 239 0 0
-0.0275735 0.22422 -0.169551 239 0 0
-0.0275735 0.223679 -0.16901 239 0 0
-0.0275735 0.223137 -0.168468 239 0 0
-0.0275735 0.222596 -0.167927 239 0 0
-0.0270221 0.217613 -0.174036 239 0 0
-0.0270221 0.217082 -0.173505 239 0 0
-0.0270221 0.216551 -0.172974 239 0 0
-0.0270221 0.216021 -0.172444 239 0 0
-0.0270221 0.21549 -0.171913 239 0 0
-0.0270221 0.214959 -0.171382 239 0 0
-0.0270221 0.214428 -0.170851 239 0 0
-0.0270221 0.213898 -0.17032 239 0 0
-0.0270221 0.213367 -0.16979 239 0 0
-0.0270221 0.212836 -0.169259 239 0 0
-0.0270221 0.212305 -0.168728 239 0 0
-0.0270221 0.211775 -0.168197 239 0 0
-0.0270221 0.211244 -0.167667 239 0 0
-0.0270221 0.210713 -0.167136 239 0 0
-0.0270221 0.210182 -0.166605 239 0 0
-0.0270221 0.209652 -0.166074 239 0 0
-0.0270221 0.209121 -0.165544 239 0 0
-0.0270221 0.20859 -0.165013 239 0 0
-0.0270221 0.208059 -0.164482 239 0 0
-0.0270221 0.207528 -0.163951 239 0 0
-0.0270221 0.206998 -0.163421 239 0 0
-0.0270221 0.206467 -0.16289 239 0 0
-0.0270221 0.205936 -0.162359 239 0 0
-0.0270221 0.205405 -0.161828 239 0 0
-0.0270221 0.204875 -0.161297 239 0 0
-0.0270221 0.204344 -0.160767 239 0 0
-0.0270221 0.203813 -0.160236 239 0 0
-0.0270221 0.203282 -0.159705 239 0 0
-0.0270221 0.202752 -0.159174 239 0 0
-0.0270221 0.202221 -0.158644 239 0 0
-0.0270221 0.20169 -0.158113 239 0 0
-0.0270221 0.201159 -0.157582 239 0 0
-0.0260034 0.338849 -0.300818 239 0 0
-0.0260034 0.338324 -0.300293 239 0 0
-0.0260034 0.337798 -0.299767 239 0 0
-0.0260034 0.337273 -0.299242 239 0 0
-0.0260034 0.336748 -0.298716 239 0 0
-0.0260034 0.336222 -0.298191 239 0 0
-0.0260034 0.335697 -0.297666 239 0 0
-0.0260034 0.335172 -0.29714 239 0 0
-0.0262714 0.338096 -0.294519 176 0 0
-0.0265395 0.34101 -0.291887 176 0 0
-0.0265395 0.340474 -0.291351 239 0 0
-0.0265395 0.339938 -0.290815 239 0 0
-0.0265395 0.339402 -0.290278 239 0 0
-0.0265395 0.338865 -0.289742 239 0 0
-0.0265395 0.338329 -0.289206 239 0 0
-0.0265395 0.337793 -0.28867 239 0 0
-0.0265395 0.337257 -0.288134 239 0 0
-0.0265395 0.336721 -0.287598 239 0 0
-0.0265395 0.336184 -0.287061 239 0 0
-0.0265395 0.335648 -0.286525 239 0 0
-0.0265395 0.335112 -0.285989 239 0 0
-0.0265395 0.334576 -0.285453 239 0 0
-0.0265395 0.33404 -0.284917 239 0 0
-0.0265395 0.333504 -0.28438 239 0 0
-0.0265395 0.332967 -0.283844 239 0 0
-0.0265395 0.332431 -0.283308 239 0 0
-0.0265395 0.331895 -0.282772 239 0 0
-0.0265395 0.331359 -0.282236 239 0 0
-0.0265395 0.330823 -0.2817 239 0 0
-0.0265395 0.330286 -0.281163 239 0 0
-0.0265395 0.32975 -0.280627 239 0 0
-0.0265395 0.329214 -0.280091 239 0 0
-0.0265395 0.328678 -0.279555 239 0 0
-0.0265395 0.328142 -0.279019 239 0 0
-0.0265395 0.327606 -0.278482 239 0 0
-0.0265395 0.327069 -0.277946 239 0 0
-0.0265395 0.326533 -0.27741 239 0 0
-0.0265395 0.325997 -0.276874 239 0 0
-0.0265395 0.325461 -0.276338 239 0 0
-0.0265395 0.324925 -0.275802 239 0 0
-0.0265395 0.324388 -0.275265 239 0 0
-0.0265395 0.323852 -0.274729 239 0 0
-0.0265395 0.323316 -0.274193 239 0 0
-0.0265395 0.32278 -0.273657 239 0 0
-0.0265395 0.322244 -0.273121 239 0 0
-0.0265395 0.321708 -0.272584 239 0 0
-0.0265395 0.321171 -0.272048 239 0 0
-0.0265395 0.320635 -0.271512 239 0 0
-0.0265395 0.320099 -0.270976 239 0 0
-0.0265395 0.319563 -0.27044 239 0 0
-0.0265395 0.319027 -0.269904 239 0 0
-0.0265395 0.318491 -0.269367 239 0 0
-0.0265395 0.317954 -0.268831 239 0 0
-0.0265395 0.317418 -0.268295 239 0 0
-0.0265395 0.316882 -0.267759 239 0 0
-0.0265395 0.316346 -0.267223 239 0 0
-0.0265395 0.31581 -0.266687 239 0 0
-0.0265395 0.315273 -0.26615 239 0 0
-0.0265395 0.314737 -0.265614 239 0 0
-0.0265395 0.314201 -0.265078 239 0 0
-0.0265395 0.313665 -0.264542 239 0 0
-0.0265395 0.313129 -0.264006 239 0 0
-0.0265395 0.312593 -0.263469 239 0 0
-0.0265395 0.312056 -0.262933 239 0 0
-0.0265395 0.31152 -0.262397 239 0 0
-0.0265395 0.310984 -0.261861 239 0 0
-0.0265395 0.310448 -0.261325 239 0 0
-0.0265395 0.309912 -0.260789 239 0 0
-0.0265395 0.309375 -0.260252 239 0 0
-0.0265395 0.308839 -0.259716 239 0 0
-0.0265395 0.308303 -0.25918 239 0 0
-0.0265395 0.307767 -0.258644 239 0 0
-0.0265395 0.307231 -0.258108 239 0 0
-0.0265395 0.306695 -0.257571 239 0 0
-0.0265395 0.306158 -0.257035 239 0 0
-0.0265395 0.305622 -0.256499 239 0 0
-0.0265395 0.305086 -0.255963 153 0 0
-0.0265395 0.30455 -0.255427 153 0 0
-0.0262714 0.300943 -0.257366 153 0 0
-0.0260034 0.297347 -0.259315 239 0 0
-0.0260034 0.296821 -0.25879 239 0 0
-0.0260034 0.296296 -0.258265 239 0 0
-0.0260034 0.295771 -0.257739 239 0 0
-0.0260034 0.295245 -0.257214 239 0 0
-0.0260034 0.29472 -0.256689 239 0 0
-0.0260034 0.294195 -0.256163 239 0 0
-0.0260034 0.293669 -0.255638 239 0 0
-0.0260034 0.293144 -0.255113 239 0 0
-0.0260034 0.292619 -0.254587 239 0 0
-0.0260034 0.292093 -0.254062 239 0 0
-0.0260034 0.291568 -0.253537 239 0 0
-0.0260034 0.291042 -0.253011 239 0 0
-0.0260034 0.290517 -0.252486 239 0 0
-0.0260034 0.289992 -0.251961 239 0 0
-0.0260034 0.289466 -0.251435 239 0 0
-0.0260034 0.288941 -0.25091 239 0 0
-0.0260034 0.288416 -0.250384 239 0 0
-0.0260034 0.28789 -0.249859 239 0 0
-0.0260034 0.287365 -0.249334 239 0 0
-0.0260034 0.28684 -0.248808 239 0 0
-0.0260034 0.286314 -0.248283 239 0 0
-0.0260034 0.285789 -0.247758 239 0 0
-0.0260034 0.285264 -0.247232 239 0 0
-0.0260034 0.284738 -0.246707 239 0 0
-0.0260034 0.284213 -0.246182 239 0 0
-0.0260034 0.283688 -0.245656 239 0 0
-0.0260034 0.283162 -0.245131 239 0 0
-0.0260034 0.282637 -0.244606 239 0 0
-0.0260034 0.282112 -0.24408 239 0 0
-0.0260034 0.281586 -0.243555 239 0 0
-0.0260034 0.281061 -0.24303 239 0 0
-0.0260034 0.280536 -0.242504 239 0 0
-0.0260034 0.28001 -0.241979 239 0 0
-0.0260034 0.279485 -0.241454 239 0 0
-0.0260034 0.278959 -0.240928 239 0 0
-0.0260034 0.278434 -0.240403 239 0 0
-0.0260034 0.277909 -0.239878 239 0 0
-0.0260034 0.277383 -0.239352 239 0 0
-0.0260034 0.276858 -0.238827 239 0 0
-0.0260034 0.276333 -0.238302 239 0 0
-0.0260034 0.275807 -0.237776 239 0 0
-0.0260034 0.275282 -0.237251 239 0 0
-0.0260034 0.274757 -0.236725 239 0 0
-0.0260034 0.274231 -0.2362 239 0 0
-0.0260034 0.273706 -0.235675 239 0 0
-0.0260034 0.273181 -0.235149 239 0 0
-0.0260034 0.272655 -0.234624 239 0 0
-0.0260034 0.27213 -0.234099 239 0 0
-0.0260034 0.271605 -0.233573 239 0 0
-0.0260034 0.271079 -0.233048 239 0 0
-0.0260034 0.270554 -0.232523 239 0 0
-0.0260034 0.270029 -0.231997 239 0 0
-0.0260034 0.269503 -0.231472 239 0 0
-0.0260034 0.268978 -0.230947 239 0 0
-0.0260034 0.268453 -0.230421 239 0 0
-0.0260034 0.267927 -0.229896 239 0 0
-0.0260034 0.267402 -0.229371 239 0 0
-0.0260034 0.266876 -0.228845 239 0 0
-0.0260034 0.266351 -0.22832 239 0 0
-0.0260034 0.265826 -0.227795 239 0 0
-0.0260034 0.2653 -0.227269 239 0 0
-0.0260034 0.264775 -0.226744 239 0 0
-0.0260034 0.26425 -0.226219 239 0 0
-0.0260034 0.263724 -0.225693 239 0 0
-0.0260034 0.263199 -0.225168 239 0 0
-0.0260034 0.262674 -0.224642 239 0 0
-0.0260034 0.262148 -0.224117 239 0 0
-0.0260034 0.261623 -0.223592 239 0 0
-0.0260034 0.261098 -0.223066 239 0 0
-0.0260034 0.260572 -0.222541 239 0 0
-0.0260034 0.260047 -0.222016 239 0 0
-0.0260034 0.259522 -0.22149 239 0 0
-0.0260034 0.258996 -0.220965 239 0 0
-0.0260034 0.258471 -0.22044 239 0 0
-0.0260034 0.257946 -0.219914 239 0 0
-0.0265395 0.262728 -0.213605 239 0 0
-0.0265395 0.262192 -0.213069 239 0 0
-0.0265395 0.261656 -0.212532 239 0 0
-0.0265395 0.261119 -0.211996 239 0 0
-0.0265395 0.260583 -0.21146 239 0 0
-0.0265395 0.260047 -0.210924 239 0 0
-0.0265395 0.259511 -0.210388 239 0 0
-0.0260034 0.253743 -0.215712 239 0 0
-0.0260034 0.253217 -0.215186 239 0 0
-0.0260034 0.252692 -0.214661 239 0 0
-0.0260034 0.252167 -0.214136 239 0 0
-0.0260034 0.251641 -0.21361 239 0 0
-0.0260034 0.251116 -0.213085 239 0 0
-0.0260034 0.250591 -0.212559 239 0 0
-0.0260034 0.250065 -0.212034 239 0 0
-0.0265395 0.254685 -0.205562 239 0 0
-0.0265395 0.254149 -0.205026 239 0 0
-0.0265395 0.253613 -0.20449 239 0 0
-0.0265395 0.253077 -0.203954 239 0 0
-0.0265395 0.25254 -0.203417 239 0 0
-0.0265395 0.252004 -0.202881 239 0 0
-0.0265395 0.251468 -0.202345 153 0 0
-0.0262714 0.248397 -0.20482 153 0 0
-0.0260034 0.245337 -0.207306 153 0 0
-0.0260034 0.244812 -0.206781 239 0 0
-0.0260034 0.244287 -0.206255 239 0 0
-0.0260034 0.243761 -0.20573 239 0 0
-0.0260034 0.243236 -0.205205 239 0 0
-0.0260034 0.242711 -0.204679 239 0 0
-0.0260034 0.242185 -0.204154 239 0 0
-0.0260034 0.24166 -0.203629 239 0 0
-0.0260034 0.241134 -0.203103 239 0 0
-0.0260034 0.240609 -0.202578 239 0 0
-0.0260034 0.240084 -0.202053 239 0 0
-0.0260034 0.239558 -0.201527 239 0 0
-0.0260034 0.239033 -0.201002 239 0 0
-0.0265395 0.243425 -0.194302 239 0 0
-0.0265395 0.242889 -0.193766 239 0 0
-0.0265395 0.242353 -0.19323 239 0 0
-0.0265395 0.241817 -0.192694 239 0 0
-0.0265395 0.241281 -0.192158 239 0 0
-0.0265395 0.240745 -0.191621 239 0 0
-0.0265395 0.240208 -0.191085 239 0 0
-0.0265395 0.239672 -0.190549 239 0 0
-0.0265395 0.239136 -0.190013 153 0 0
-0.0260034 0.23378 -0.195748 239 0 0
-0.0260034 0.233254 -0.195223 239 0 0
-0.0260034 0.232729 -0.194698 239 0 0
-0.0260034 0.232204 -0.194172 239 0 0
-0.0260034 0.231678 -0.193647 239 0 0
-0.0260034 0.231153 -0.193122 239 0 0
-0.0260034 0.230628 -0.192596 239 0 0
-0.0260034 0.230102 -0.192071 239 0 0
-0.0260034 0.229577 -0.191546 239 0 0
-0.0265395 0.233774 -0.184651 239 0 0
-0.0265395 0.233238 -0.184115 239 0 0
-0.0265395 0.232702 -0.183579 239 0 0
-0.0265395 0.232166 -0.183043 239 0 0
-0.0265395 0.231629 -0.182506 239 0 0
-0.0265395 0.231093 -0.18197 239 0 0
-0.0265395 0.230557 -0.181434 239 0 0
-0.0265395 0.230021 -0.180898 239 0 0
-0.0265395 0.229485 -0.180362 239 0 0
-0.0265395 0.228949 -0.179825 239 0 0
-0.0265395 0.228412 -0.179289 239 0 0
-0.0265395 0.227876 -0.178753 239 0 0
-0.0265395 0.22734 -0.178217 239 0 0
-0.0265395 0.226804 -0.177681 239 0 0
-0.0265395 0.226268 -0.177145 239 0 0
-0.0265395 0.225731 -0.176608 239 0 0
-0.0265395 0.225195 -0.176072 239 0 0
-0.0265395 0.224659 -0.175536 239 0 0
-0.0265395 0.224123 -0.175 239 0 0
-0.0265395 0.223587 -0.174464 239 0 0
-0.0265395 0.223051 -0.173927 239 0 0
-0.0265395 0.222514 -0.173391 239 0 0
-0.0265395 0.221978 -0.172855 239 0 0
-0.0265395 0.221442 -0.172319 239 0 0
-0.0265395 0.220906 -0.171783 239 0 0
-0.0265395 0.22037 -0.171247 239 0 0
-0.0260034 0.215392 -0.177361 239 0 0
-0.0260034 0.214867 -0.176836 239 0 0
-0.0260034 0.214342 -0.176311 239 0 0
-0.0260034 0.213816 -0.175785 239 0 0
-0.0260034 0.213291 -0.17526 239 0 0
-0.0260034 0.212766 -0.174734 239 0 0
-0.0260034 0.21224 -0.174209 239 0 0
-0.0260034 0.211715 -0.173684 239 0 0
-0.0260034 0.21119 -0.173158 239 0 0
-0.0260034 0.210664 -0.172633 239 0 0
-0.0260034 0.210139 -0.172108 239 0 0
-0.0260034 0.209614 -0.171582 239 0 0
-0.0260034 0.209088 -0.171057 239 0 0
-0.0260034 0.208563 -0.170532 239 0 0
-0.0260034 0.208038 -0.170006 239 0 0
-0.0260034 0.207512 -0.169481 239 0 0
-0.0260034 0.206987 -0.168956 239 0 0
-0.0260034 0.206462 -0.16843 239 0 0
-0.0260034 0.205936 -0.167905 239 0 0
-0.0260034 0.205411 -0.16738 239 0 0
-0.0260034 0.204885 -0.166854 239 0 0
-0.0260034 0.20436 -0.166329 239 0 0
-0.0260034 0.203835 -0.165804 239 0 0
-0.0260034 0.203309 -0.165278 239 0 0
-0.0260034 0.202784 -0.164753 239 0 0
-0.0260034 0.202259 -0.164228 239 0 0
-0.0260034 0.201733 -0.163702 239 0 0
-0.0260034 0.201208 -0.163177 239 0 0
-0.0260034 0.200683 -0.162651 239 0 0
-0.0260034 0.200157 -0.162126 239 0 0
-0.0260034 0.199632 -0.161601 239 0 0
-0.0260034 0.199107 -0.161075 239 0 0
-0.0252604 0.338849 -0.300818 239 0 0
-0.0252604 0.338324 -0.300293 239 0 0
-0.0252604 0.337798 -0.299767 239 0 0
-0.0252604 0.337273 -0.299242 239 0 0
-0.0252604 0.336748 -0.298716 239 0 0
-0.0252604 0.336222 -0.298191 239 0 0
-0.0252604 0.335697 -0.297666 239 0 0
-0.0252604 0.335172 -0.29714 239 0 0
-0.0255208 0.338096 -0.294519 176 0 0
-0.0257812 0.34101 -0.291887 176 0 0
-0.0257812 0.340474 -0.291351 239 0 0
-0.0257812 0.339938 -0.290815 239 0 0
-0.0257812 0.339402 -0.290278 239 0 0
-0.0257812 0.338865 -0.289742 239 0 0
-0.0257812 0.338329 -0.289206 239 0 0
-0.0257812 0.337793 -0.28867 239 0 0
-0.0257812 0.337257 -0.288134 239 0 0
-0.0257812 0.336721 -0.287598 239 0 0
-0.0257812 0.336184 -0.287061 239 0 0
-0.0257812 0.335648 -0.286525 239 0 0
-0.0257812 0.335112 -0.285989 239 0 0
-0.0257812 0.334576 -0.285453 239 0 0
-0.0257812 0.33404 -0.284917 239 0 0
-0.0257812 0.333504 -0.28438 239 0 0
-0.0257812 0.332967 -0.283844 239 0 0
-0.0257812 0.332431 -0.283308 239 0 0
-0.0257812 0.331895 -0.282772 239 0 0
-0.0257812 0.331359 -0.282236 239 0 0
-0.0257812 0.330823 -0.2817 239 0 0
-0.0257812 0.330286 -0.281163 239 0 0
-0.0257812 0.32975 -0.280627 239 0 0
-0.0257812 0.329214 -0.280091 239 0 0
-0.0257812 0.328678 -0.279555 239 0 0
-0.0257812 0.328142 -0.279019 239 0 0
-0.0257812 0.327606 -0.278482 239 0 0
-0.0257812 0.327069 -0.277946 239 0 0
-0.0257812 0.326533 -0.27741 239 0 0
-0.0257812 0.325997 -0.276874 239 0 0
-0.0257812 0.325461 -0.276338 239 0 0
-0.0257812 0.324925 -0.275802 239 0 0
-0.0257812 0.324388 -0.275265 239 0 0
-0.0257812 0.323852 -0.274729 239 0 0
-0.0257812 0.323316 -0.274193 239 0 0
-0.0257812 0.32278 -0.273657 239 0 0
-0.0257812 0.322244 -0.273121 239 0 0
-0.0257812 0.321708 -0.272584 239 0 0
-0.0257812 0.321171 -0.272048 239 0 0
-0.0257812 0.320635 -0.271512 239 0 0
-0.0257812 0.320099 -0.270976 239 0 0
-0.0257812 0.319563 -0.27044 239 0 0
-0.0257812 0.319027 -0.269904 239 0 0
-0.0257812 0.318491 -0.269367 239 0 0
-0.0257812 0.317954 -0.268831 239 0 0
-0.0257812 0.317418 -0.268295 239 0 0
-0.0257812 0.316882 -0.267759 239 0 0
-0.0257812 0.316346 -0.267223 239 0 0
-0.0257812 0.31581 -0.266687 239 0 0
-0.0257812 0.315273 -0.26615 239 0 0
-0.0257812 0.314737 -0.265614 239 0 0
-0.0257812 0.314201 -0.265078 239 0 0
-0.0257812 0.313665 -0.264542 239 0 0
-0.0257812 0.313129 -0.264006 239 0 0
-0.0257812 0.312593 -0.263469 239 0 0
-0.0257812 0.312056 -0.262933 239 0 0
-0.0257812 0.31152 -0.262397 239 0 0
-0.0257812 0.310984 -0.261861 239 0 0
-0.0257812 0.310448 -0.261325 239 0 0
-0.0257812 0.309912 -0.260789 239 0 0
-0.0257812 0.309375 -0.260252 239 0 0
-0.0257812 0.308839 -0.259716 239 0 0
-0.0257812 0.308303 -0.25918 239 0 0
-0.0257812 0.307767 -0.258644 239 0 0
-0.0257812 0.307231 -0.258108 239 0 0
-0.0257812 0.306695 -0.257571 239 0 0
-0.0257812 0.306158 -0.257035 239 0 0
-0.0257812 0.305622 -0.256499 239 0 0
-0.0257812 0.305086 -0.255963 239 0 0
-0.0257812 0.30455 -0.255427 153 0 0
-0.0257812 0.304014 -0.254891 153 0 0
-0.0252604 0.297347 -0.259315 239 0 0
-0.0252604 0.296821 -0.25879 239 0 0
-0.0252604 0.296296 -0.258265 239 0 0
-0.0252604 0.295771 -0.257739 239 0 0
-0.0252604 0.295245 -0.257214 239 0 0
-0.0252604 0.29472 -0.256689 239 0 0
-0.0252604 0.294195 -0.256163 239 0 0
-0.0252604 0.293669 -0.255638 239 0 0
-0.0252604 0.293144 -0.255113 239 0 0
-0.0252604 0.292619 -0.254587 239 0 0
-0.0252604 0.292093 -0.254062 239 0 0
-0.0252604 0.291568 -0.253537 239 0 0
-0.0252604 0.291042 -0.253011 239 0 0
-0.0252604 0.290517 -0.252486 239 0 0
-0.0252604 0.289992 -0.251961 239 0 0
-0.0252604 0.289466 -0.251435 239 0 0
-0.0252604 0.288941 -0.25091 239 0 0
-0.0252604 0.288416 -0.250384 239 0 0
-0.0252604 0.28789 -0.249859 239 0 0
-0.0252604 0.287365 -0.249334 239 0 0
-0.0252604 0.28684 -0.248808 239 0 0
-0.0252604 0.286314 -0.248283 239 0 0
-0.0252604 0.285789 -0.247758 239 0 0
-0.0252604 0.285264 -0.247232 239 0 0
-0.0252604 0.284738 -0.246707 239 0 0
-0.0252604 0.284213 -0.246182 239 0 0
-0.0252604 0.283688 -0.245656 239 0 0
-0.0252604 0.283162 -0.245131 239 0 0
-0.0252604 0.282637 -0.244606 239 0 0
-0.0252604 0.282112 -0.24408 239 0 0
-0.0252604 0.281586 -0.243555 239 0 0
-0.0252604 0.281061 -0.24303 239 0 0
-0.0252604 0.280536 -0.242504 239 0 0
-0.0252604 0.28001 -0.241979 239 0 0
-0.0252604 0.279485 -0.241454 239 0 0
-0.0252604 0.278959 -0.240928 239 0 0
-0.0252604 0.278434 -0.240403 239 0 0
-0.0252604 0.277909 -0.239878 239 0 0
-0.0252604 0.277383 -0.239352 239 0 0
-0.0252604 0.276858 -0.238827 239 0 0
-0.0252604 0.276333 -0.238302 239 0 0
-0.0252604 0.275807 -0.237776 239 0 0
-0.0252604 0.275282 -0.237251 239 0 0
-0.0252604 0.274757 -0.236725 239 0 0
-0.0252604 0.274231 -0.2362 239 0 0
-0.0252604 0.273706 -0.235675 239 0 0
-0.0252604 0.273181 -0.235149 239 0 0
-0.0252604 0.272655 -0.234624 239 0 0
-0.0252604 0.27213 -0.234099 239 0 0
-0.0252604 0.271605 -0.233573 239 0 0
-0.0252604 0.271079 -0.233048 239 0 0
-0.0252604 0.270554 -0.232523 239 0 0
-0.0252604 0.270029 -0.231997 239 0 0
-0.0252604 0.269503 -0.231472 239 0 0
-0.0252604 0.268978 -0.230947 239 0 0
-0.0252604 0.268453 -0.230421 239 0 0
-0.0252604 0.267927 -0.229896 239 0 0
-0.0252604 0.267402 -0.229371 239 0 0
-0.0252604 0.266876 -0.228845 239 0 0
-0.0252604 0.266351 -0.22832 239 0 0
-0.0252604 0.265826 -0.227795 239 0 0
-0.0252604 0.2653 -0.227269 239 0 0
-0.0252604 0.264775 -0.226744 239 0 0
-0.0252604 0.26425 -0.226219 239 0 0
-0.0252604 0.263724 -0.225693 239 0 0
-0.0252604 0.263199 -0.225168 239 0 0
-0.0252604 0.262674 -0.224642 239 0 0
-0.0252604 0.262148 -0.224117 239 0 0
-0.0252604 0.261623 -0.223592 239 0 0
-0.0252604 0.261098 -0.223066 239 0 0
-0.0252604 0.260572 -0.222541 239 0 0
-0.0252604 0.260047 -0.222016 239 0 0
-0.0252604 0.259522 -0.22149 239 0 0
-0.0252604 0.258996 -0.220965 239 0 0
-0.0252604 0.258471 -0.22044 239 0 0
-0.0252604 0.257946 -0.219914 239 0 0
-0.0257812 0.262728 -0.213605 239 0 0
-0.0257812 0.262192 -0.213069 239 0 0
-0.0257812 0.261656 -0.212532 239 0 0
-0.0257812 0.261119 -0.211996 239 0 0
-0.0257812 0.260583 -0.21146 239 0 0
-0.0257812 0.260047 -0.210924 239 0 0
-0.0257812 0.259511 -0.210388 239 0 0
-0.0252604 0.253743 -0.215712 239 0 0
-0.0252604 0.253217 -0.215186 239 0 0
-0.0252604 0.252692 -0.214661 239 0 0
-0.0252604 0.252167 -0.214136 239 0 0
-0.0252604 0.251641 -0.21361 239 0 0
-0.0252604 0.251116 -0.213085 239 0 0
-0.0252604 0.250591 -0.212559 239 0 0
-0.0252604 0.250065 -0.212034 239 0 0
-0.0257812 0.254685 -0.205562 239 0 0
-0.0257812 0.254149 -0.205026 239 0 0
-0.0257812 0.253613 -0.20449 239 0 0
-0.0257812 0.253077 -0.203954 239 0 0
-0.0257812 0.25254 -0.203417 239 0 0
-0.0257812 0.252004 -0.202881 239 0 0
-0.0257812 0.251468 -0.202345 153 0 0
-0.0255208 0.248397 -0.20482 153 0 0
-0.0255208 0.247866 -0.204289 153 0 0
-0.0255208 0.247336 -0.203759 153 0 0
-0.0252604 0.244287 -0.206255 153 0 0
-0.0252604 0.243761 -0.20573 153 0 0
-0.0252604 0.243236 -0.205205 153 0 0
-0.0252604 0.242711 -0.204679 239 0 0
-0.0252604 0.242185 -0.204154 239 0 0
-0.0252604 0.24166 -0.203629 239 0 0
-0.0252604 0.241134 -0.203103 239 0 0
-0.0252604 0.240609 -0.202578 239 0 0
-0.0252604 0.240084 -0.202053 239 0 0
-0.0252604 0.239558 -0.201527 239 0 0
-0.0252604 0.239033 -0.201002 239 0 0
-0.0257812 0.243425 -0.194302 239 0 0
-0.0257812 0.242889 -0.193766 239 0 0
-0.0257812 0.242353 -0.19323 239 0 0
-0.0257812 0.241817 -0.192694 239 0 0
-0.0257812 0.241281 -0.192158 239 0 0
-0.0257812 0.240745 -0.191621 239 0 0
-0.0257812 0.240208 -0.191085 239 0 0
-0.0257812 0.239672 -0.190549 239 0 0
-0.0257812 0.239136 -0.190013 153 0 0
-0.0252604 0.23378 -0.195748 239 0 0
-0.0252604 0.233254 -0.195223 239 0 0
-0.0252604 0.232729 -0.194698 239 0 0
-0.0252604 0.232204 -0.194172 239 0 0
-0.0252604 0.231678 -0.193647 239 0 0
-0.0252604 0.231153 -0.193122 239 0 0
-0.0252604 0.230628 -0.192596 239 0 0
-0.0252604 0.230102 -0.192071 239 0 0
-0.0252604 0.229577 -0.191546 239 0 0
-0.0252604 0.229051 -0.19102 239 0 0
-0.0257812 0.233238 -0.184115 239 0 0
-0.0257812 0.232702 -0.183579 239 0 0
-0.0257812 0.232166 -0.183043 239 0 0
-0.0257812 0.231629 -0.182506 239 0 0
-0.0257812 0.231093 -0.18197 239 0 0
-0.0257812 0.230557 -0.181434 239 0 0
-0.0257812 0.230021 -0.180898 239 0 0
-0.0257812 0.229485 -0.180362 239 0 0
-0.0257812 0.228949 -0.179825 239 0 0
-0.0257812 0.228412 -0.179289 239 0 0
-0.0257812 0.227876 -0.178753 239 0 0
-0.0257812 0.22734 -0.178217 239 0 0
-0.0257812 0.226804 -0.177681 239 0 0
-0.0257812 0.226268 -0.177145 239 0 0
-0.0257812 0.225731 -0.176608 239 0 0
-0.0257812 0.225195 -0.176072 239 0 0
-0.0257812 0.224659 -0.175536 239 0 0
-0.0257812 0.224123 -0.175 239 0 0
-0.0257812 0.223587 -0.174464 239 0 0
-0.0257812 0.223051 -0.173927 239 0 0
-0.0257812 0.222514 -0.173391 239 0 0
-0.0257812 0.221978 -0.172855 239 0 0
-0.0257812 0.221442 -0.172319 239 0 0
-0.0257812 0.220906 -0.171783 239 0 0
-0.0257812 0.22037 -0.171247 239 0 0
-0.0252604 0.215392 -0.177361 239 0 0
-0.0252604 0.214867 -0.176836 239 0 0
-0.0252604 0.214342 -0.176311 239 0 0
-0.0252604 0.213816 -0.175785 239 0 0
-0.0252604 0.213291 -0.17526 239 0 0
-0.0252604 0.212766 -0.174734 239 0 0
-0.0252604 0.21224 -0.174209 239 0 0
-0.0252604 0.211715 -0.173684 239 0 0
-0.0252604 0.21119 -0.173158 239 0 0
-0.0252604 0.210664 -0.172633 239 0 0
-0.0252604 0.210139 -0.172108 239 0 0
-0.0252604 0.209614 -0.171582 239 0 0
-0.0252604 0.209088 -0.171057 239 0 0
-0.0252604 0.208563 -0.170532 239 0 0
-0.0252604 0.208038 -0.170006 239 0 0
-0.0252604 0.207512 -0.169481 239 0 0
-0.0252604 0.206987 -0.168956 239 0 0
-0.0252604 0.206462 -0.16843 239 0 0
-0.0252604 0.205936 -0.167905 239 0 0
-0.0252604 0.205411 -0.16738 239 0 0
-0.0252604 0.204885 -0.166854 239 0 0
-0.0252604 0.20436 -0.166329 239 0 0
-0.0252604 0.203835 -0.165804 239 0 0
-0.0252604 0.203309 -0.165278 239 0 0
-0.0252604 0.202784 -0.164753 239 0 0
-0.0252604 0.202259 -0.164228 239 0 0
-0.0252604 0.201733 -0.163702 239 0 0
-0.0252604 0.201208 -0.163177 239 0 0
-0.0252604 0.200683 -0.162651 239 0 0
-0.0252604 0.200157 -0.162126 239 0 0
-0.0252604 0.199632 -0.161601 239 0 0
-0.0252604 0.199107 -0.161075 239 0 0
-0.0245175 0.338849 -0.300818 239 0 0
-0.0245175 0.338324 -0.300293 239 0 0
-0.0245175 0.337798 -0.299767 239 0 0
-0.0245175 0.337273 -0.299242 239 0 0
-0.0245175 0.336748 -0.298716 239 0 0
-0.0245175 0.336222 -0.298191 239 0 0
-0.0245175 0.335697 -0.297666 239 0 0
-0.0245175 0.335172 -0.29714 239 0 0
-0.0247702 0.338096 -0.294519 176 0 0
-0.025023 0.34101 -0.291887 176 0 0
-0.025023 0.340474 -0.291351 239 0 0
-0.025023 0.339938 -0.290815 239 0 0
-0.025023 0.339402 -0.290278 239 0 0
-0.025023 0.338865 -0.289742 239 0 0
-0.025023 0.338329 -0.289206 239 0 0
-0.025023 0.337793 -0.28867 239 0 0
-0.025023 0.337257 -0.288134 239 0 0
-0.025023 0.336721 -0.287598 239 0 0
-0.025023 0.336184 -0.287061 239 0 0
-0.025023 0.335648 -0.286525 239 0 0
-0.025023 0.335112 -0.285989 239 0 0
-0.025023 0.334576 -0.285453 239 0 0
-0.025023 0.33404 -0.284917 239 0 0
-0.025023 0.333504 -0.28438 239 0 0
-0.025023 0.332967 -0.283844 239 0 0
-0.025023 0.332431 -0.283308 239 0 0
-0.025023 0.331895 -0.282772 239 0 0
-0.025023 0.331359 -0.282236 239 0 0
-0.025023 0.330823 -0.2817 239 0 0
-0.025023 0.330286 -0.281163 239 0 0
-0.025023 0.32975 -0.280627 239 0 0
-0.025023 0.329214 -0.280091 239 0 0
-0.025023 0.328678 -0.279555 239 0 0
-0.025023 0.328142 -0.279019 239 0 0
-0.025023 0.327606 -0.278482 239 0 0
-0.025023 0.327069 -0.277946 239 0 0
-0.025023 0.326533 -0.27741 239 0 0
-0.025023 0.325997 -0.276874 239 0 0
-0.025023 0.325461 -0.276338 239 0 0
-0.025023 0.324925 -0.275802 239 0 0
-0.025023 0.324388 -0.275265 239 0 0
-0.025023 0.323852 -0.274729 239 0 0
-0.025023 0.323316 -0.274193 239 0 0
-0.025023 0.32278 -0.273657 239 0 0
-0.025023 0.322244 -0.273121 239 0 0
-0.025023 0.321708 -0.272584 239 0 0
-0.025023 0.321171 -0.272048 239 0 0
-0.025023 0.320635 -0.271512 239 0 0
-0.025023 0.320099 -0.270976 239 0 0
-0.025023 0.319563 -0.27044 239 0 0
-0.025023 0.319027 -0.269904 239 0 0
-0.025023 0.318491 -0.269367 239 0 0
-0.025023 0.317954 -0.268831 239 0 0
-0.025023 0.317418 -0.268295 239 0 0
-0.025023 0.316882 -0.267759 239 0 0
-0.025023 0.316346 -0.267223 239 0 0
-0.025023 0.31581 -0.266687 239 0 0
-0.025023 0.315273 -0.26615 239 0 0
-0.025023 0.314737 -0.265614 239 0 0
-0.025023 0.314201 -0.265078 239 0 0
-0.025023 0.313665 -0.264542 239 0 0
-0.025023 0.313129 -0.264006 239 0 0
-0.025023 0.312593 -0.263469 239 0 0
-0.025023 0.312056 -0.262933 239 0 0
-0.025023 0.31152 -0.262397 239 0 0
-0.025023 0.310984 -0.261861 239 0 0
-0.025023 0.310448 -0.261325 239 0 0
-0.025023 0.309912 -0.260789 239 0 0
-0.025023 0.309375 -0.260252 239 0 0
-0.025023 0.308839 -0.259716 239 0 0
-0.025023 0.308303 -0.25918 239 0 0
-0.025023 0.307767 -0.258644 239 0 0
-0.025023 0.307231 -0.258108 239 0 0
-0.025023 0.306695 -0.257571 239 0 0
-0.025023 0.306158 -0.257035 239 0 0
-0.025023 0.305622 -0.256499 239 0 0
-0.025023 0.305086 -0.255963 239 0 0
-0.025023 0.30455 -0.255427 239 0 0
-0.025023 0.304014 -0.254891 153 0 0
-0.0245175 0.297347 -0.259315 239 0 0
-0.0245175 0.296821 -0.25879 239 0 0
-0.0245175 0.296296 -0.258265 239 0 0
-0.0245175 0.295771 -0.257739 239 0 0
-0.0245175 0.295245 -0.257214 239 0 0
-0.0245175 0.29472 -0.256689 239 0 0
-0.0245175 0.294195 -0.256163 239 0 0
-0.0245175 0.293669 -0.255638 239 0 0
-0.0245175 0.293144 -0.255113 239 0 0
-0.0245175 0.292619 -0.254587 239 0 0
-0.0245175 0.292093 -0.254062 239 0 0
-0.0245175 0.291568 -0.253537 239 0 0
-0.0245175 0.291042 -0.253011 239 0 0
-0.0245175 0.290517 -0.252486 239 0 0
-0.0245175 0.289992 -0.251961 239 0 0
-0.0245175 0.289466 -0.251435 239 0 0
-0.0245175 0.288941 -0.25091 239 0 0
-0.0245175 0.288416 -0.250384 239 0 0
-0.0245175 0.28789 -0.249859 239 0 0
-0.0245175 0.287365 -0.249334 239 0 0
-0.0245175 0.28684 -0.248808 239 0 0
-0.0245175 0.286314 -0.248283 239 0 0
-0.0245175 0.285789 -0.247758 239 0 0
-0.0245175 0.285264 -0.247232 239 0 0
-0.0245175 0.284738 -0.246707 239 0 0
-0.0245175 0.284213 -0.246182 239 0 0
-0.0245175 0.283688 -0.245656 239 0 0
-0.0245175 0.283162 -0.245131 239 0 0
-0.0245175 0.282637 -0.244606 239 0 0
-0.0245175 0.282112 -0.24408 239 0 0
-0.0245175 0.281586 -0.243555 239 0 0
-0.0245175 0.281061 -0.24303 239 0 0
-0.0245175 0.280536 -0.242504 239 0 0
-0.0245175 0.28001 -0.241979 239 0 0
-0.0245175 0.279485 -0.241454 239 0 0
-0.0245175 0.278959 -0.240928 239 0 0
-0.0245175 0.278434 -0.240403 239 0 0
-0.0245175 0.277909 -0.239878 239 0 0
-0.0245175 0.277383 -0.239352 239 0 0
-0.0245175 0.276858 -0.238827 239 0 0
-0.0245175 0.276333 -0.238302 239 0 0
-0.0245175 0.275807 -0.237776 239 0 0
-0.0245175 0.275282 -0.237251 239 0 0
-0.0245175 0.274757 -0.236725 239 0 0
-0.0245175 0.274231 -0.2362 239 0 0
-0.0245175 0.273706 -0.235675 239 0 0
-0.0245175 0.273181 -0.235149 239 0 0
-0.0245175 0.272655 -0.234624 239 0 0
-0.0245175 0.27213 -0.234099 239 0 0
-0.0245175 0.271605 -0.233573 239 0 0
-0.0245175 0.271079 -0.233048 239 0 0
-0.0245175 0.270554 -0.232523 239 0 0
-0.0245175 0.270029 -0.231997 239 0 0
-0.0245175 0.269503 -0.231472 239 0 0
-0.0245175 0.268978 -0.230947 239 0 0
-0.0245175 0.268453 -0.230421 239 0 0
-0.0245175 0.267927 -0.229896 239 0 0
-0.0245175 0.267402 -0.229371 239 0 0
-0.0245175 0.266876 -0.228845 239 0 0
-0.0245175 0.266351 -0.22832 239 0 0
-0.0245175 0.265826 -0.227795 239 0 0
-0.0245175 0.2653 -0.227269 239 0 0
-0.0245175 0.264775 -0.226744 239 0 0
-0.0245175 0.26425 -0.226219 239 0 0
-0.0245175 0.263724 -0.225693 239 0 0
-0.0245175 0.263199 -0.225168 239 0 0
-0.0245175 0.262674 -0.224642 239 0 0
-0.0245175 0.262148 -0.224117 239 0 0
-0.0245175 0.261623 -0.223592 239 0 0
-0.0245175 0.261098 -0.223066 239 0 0
-0.0245175 0.260572 -0.222541 239 0 0
-0.0245175 0.260047 -0.222016 239 0 0
-0.0245175 0.259522 -0.22149 239 0 0
-0.0245175 0.258996 -0.220965 239 0 0
-0.0245175 0.258471 -0.22044 239 0 0
-0.0245175 0.257946 -0.219914 239 0 0
-0.025023 0.262728 -0.213605 239 0 0
-0.025023 0.262192 -0.213069 239 0 0
-0.025023 0.261656 -0.212532 239 0 0
-0.025023 0.261119 -0.211996 239 0 0
-0.025023 0.260583 -0.21146 239 0 0
-0.025023 0.260047 -0.210924 239 0 0
-0.025023 0.259511 -0.210388 239 0 0
-0.0245175 0.253743 -0.215712 239 0 0
-0.0245175 0.253217 -0.215186 239 0 0
-0.0245175 0.252692 -0.214661 239 0 0
-0.0245175 0.252167 -0.214136 239 0 0
-0.0245175 0.251641 -0.21361 239 0 0
-0.0245175 0.251116 -0.213085 239 0 0
-0.0245175 0.250591 -0.212559 239 0 0
-0.0245175 0.250065 -0.212034 239 0 0
-0.025023 0.254685 -0.205562 239 0 0
-0.025023 0.254149 -0.205026 239 0 0
-0.025023 0.253613 -0.20449 239 0 0
-0.025023 0.253077 -0.203954 239 0 0
-0.025023 0.25254 -0.203417 239 0 0
-0.025023 0.252004 -0.202881 239 0 0
-0.025023 0.251468 -0.202345 239 0 0
-0.0247702 0.248397 -0.20482 153 0 0
-0.0247702 0.247866 -0.204289 153 0 0
-0.0247702 0.247336 -0.203759 153 0 0
-0.0247702 0.246805 -0.203228 153 0 0
-0.0247702 0.246274 -0.202697 153 0 0
-0.0245175 0.243236 -0.205205 153 0 0
-0.0245175 0.242711 -0.204679 153 0 0
-0.0245175 0.242185 -0.204154 153 0 0
-0.0245175 0.24166 -0.203629 153 0 0
-0.0245175 0.241134 -0.203103 153 0 0
-0.0245175 0.240609 -0.202578 239 0 0
-0.0245175 0.240084 -0.202053 239 0 0
-0.0245175 0.239558 -0.201527 239 0 0
-0.0245175 0.239033 -0.201002 239 0 0
-0.025023 0.243425 -0.194302 239 0 0
-0.025023 0.242889 -0.193766 239 0 0
-0.025023 0.242353 -0.19323 239 0 0
-0.025023 0.241817 -0.192694 239 0 0
-0.025023 0.241281 -0.192158 239 0 0
-0.025023 0.240745 -0.191621 239 0 0
-0.025023 0.240208 -0.191085 239 0 0
-0.025023 0.239672 -0.190549 239 0 0
-0.025023 0.239136 -0.190013 153 0 0
-0.0245175 0.23378 -0.195748 239 0 0
-0.0245175 0.233254 -0.195223 239 0 0
-0.0245175 0.232729 -0.194698 239 0 0
-0.0245175 0.232204 -0.194172 239 0 0
-0.0245175 0.231678 -0.193647 239 0 0
-0.0245175 0.231153 -0.193122 239 0 0
-0.0245175 0.230628 -0.192596 239 0 0
-0.0245175 0.230102 -0.192071 239 0 0
-0.0245175 0.229577 -0.191546 239 0 0
-0.0245175 0.229051 -0.19102 239 0 0
-0.025023 0.233238 -0.184115 239 0 0
-0.025023 0.232702 -0.183579 239 0 0
-0.025023 0.232166 -0.183043 239 0 0
-0.025023 0.231629 -0.182506 239 0 0
-0.025023 0.231093 -0.18197 239 0 0
-0.025023 0.230557 -0.181434 239 0 0
-0.025023 0.230021 -0.180898 239 0 0
-0.025023 0.229485 -0.180362 239 0 0
-0.025023 0.228949 -0.179825 239 0 0
-0.025023 0.228412 -0.179289 239 0 0
-0.025023 0.227876 -0.178753 239 0 0
-0.025023 0.22734 -0.178217 239 0 0
-0.025023 0.226804 -0.177681 239 0 0
-0.025023 0.226268 -0.177145 239 0 0
-0.025023 0.225731 -0.176608 239 0 0
-0.025023 0.225195 -0.176072 239 0 0
-0.025023 0.224659 -0.175536 239 0 0
-0.025023 0.224123 -0.175 239 0 0
-0.025023 0.223587 -0.174464 239 0 0
-0.025023 0.223051 -0.173927 239 0 0
-0.025023 0.222514 -0.173391 239 0 0
-0.025023 0.221978 -0.172855 239 0 0
-0.025023 0.221442 -0.172319 239 0 0
-0.025023 0.220906 -0.171783 239 0 0
-0.025023 0.22037 -0.171247 239 0 0
-0.0245175 0.215392 -0.177361 239 0 0
-0.0245175 0.214867 -0.176836 239 0 0
-0.0245175 0.214342 -0.176311 239 0 0
-0.0245175 0.213816 -0.175785 239 0 0
-0.0245175 0.213291 -0.17526 239 0 0
-0.0245175 0.212766 -0.174734 239 0 0
-0.0245175 0.21224 -0.174209 239 0 0
-0.0245175 0.211715 -0.173684 239 0 0
-0.0245175 0.21119 -0.173158 239 0 0
-0.0245175 0.210664 -0.172633 239 0 0
-0.0245175 0.210139 -0.172108 239 0 0
-0.0245175 0.209614 -0.171582 239 0 0
-0.0245175 0.209088 -0.171057 239 0 0
-0.0245175 0.208563 -0.170532 239 0 0
-0.0245175 0.208038 -0.170006 239 0 0
-0.0245175 0.207512 -0.169481 239 0 0
-0.0245175 0.206987 -0.168956 239 0 0
-0.0245175 0.206462 -0.16843 239 0 0
-0.0245175 0.205936 -0.167905 239 0 0
-0.0245175 0.205411 -0.16738 239 0 0
-0.0245175 0.204885 -0.166854 239 0 0
-0.0245175 0.20436 -0.166329 239 0 0
-0.0245175 0.203835 -0.165804 239 0 0
-0.0245175 0.203309 -0.165278 239 0 0
-0.0245175 0.202784 -0.164753 239 0 0
-0.0245175 0.202259 -0.164228 239 0 0
-0.0245175 0.201733 -0.163702 239 0 0
-0.0245175 0.201208 -0.163177 239 0 0
-0.0245175 0.200683 -0.162651 239 0 0
-0.0245175 0.200157 -0.162126 239 0 0
-0.0245175 0.199632 -0.161601 239 0 0
-0.0245175 0.199107 -0.161075 239 0 0
-0.0237745 0.339374 -0.301343 239 0 0
-0.0237745 0.338849 -0.300818 239 0 0
-0.0237745 0.338324 -0.300293 239 0 0
-0.0237745 0.337798 -0.299767 239 0 0
-0.0237745 0.337273 -0.299242 239 0 0
-0.0237745 0.336748 -0.298716 239 0 0
-0.0237745 0.336222 -0.298191 239 0 0
-0.0237745 0.335697 -0.297666 239 0 0
-0.0237745 0.335172 -0.29714 176 0 0
-0.0240196 0.338096 -0.294519 176 0 0
-0.0242647 0.34101 -0.291887 176 0 0
-0.0242647 0.340474 -0.291351 239 0 0
-0.0242647 0.339938 -0.290815 239 0 0
-0.0242647 0.339402 -0.290278 239 0 0
-0.0242647 0.338865 -0.289742 239 0 0
-0.0242647 0.338329 -0.289206 239 0 0
-0.0242647 0.337793 -0.28867 239 0 0
-0.0242647 0.337257 -0.288134 239 0 0
-0.0242647 0.336721 -0.287598 239 0 0
-0.0242647 0.336184 -0.287061 239 0 0
-0.0242647 0.335648 -0.286525 239 0 0
-0.0242647 0.335112 -0.285989 239 0 0
-0.0242647 0.334576 -0.285453 239 0 0
-0.0242647 0.33404 -0.284917 239 0 0
-0.0242647 0.333504 -0.28438 239 0 0
-0.0242647 0.332967 -0.283844 239 0 0
-0.0242647 0.332431 -0.283308 239 0 0
-0.0242647 0.331895 -0.282772 239 0 0
-0.0242647 0.331359 -0.282236 239 0 0
-0.0242647 0.330823 -0.2817 239 0 0
-0.0242647 0.330286 -0.281163 239 0 0
-0.0242647 0.32975 -0.280627 239 0 0
-0.0242647 0.329214 -0.280091 239 0 0
-0.0242647 0.328678 -0.279555 239 0 0
-0.0242647 0.328142 -0.279019 239 0 0
-0.0242647 0.327606 -0.278482 239 0 0
-0.0242647 0.327069 -0.277946 239 0 0
-0.0242647 0.326533 -0.27741 239 0 0
-0.0242647 0.325997 -0.276874 239 0 0
-0.0242647 0.325461 -0.276338 239 0 0
-0.0242647 0.324925 -0.275802 239 0 0
-0.0242647 0.324388 -0.275265 239 0 0
-0.0242647 0.323852 -0.274729 239 0 0
-0.0242647 0.323316 -0.274193 239 0 0
-0.0242647 0.32278 -0.273657 239 0 0
-0.0242647 0.322244 -0.273121 239 0 0
-0.0242647 0.321708 -0.272584 239 0 0
-0.0242647 0.321171 -0.272048 239 0 0
-0.0242647 0.320635 -0.271512 239 0 0
-0.0242647 0.320099 -0.270976 239 0 0
-0.0242647 0.319563 -0.27044 239 0 0
-0.0242647 0.319027 -0.269904 239 0 0
-0.0242647 0.318491 -0.269367 239 0 0
-0.0242647 0.317954 -0.268831 239 0 0
-0.0242647 0.317418 -0.268295 239 0 0
-0.0242647 0.316882 -0.267759 239 0 0
-0.0242647 0.316346 -0.267223 239 0 0
-0.0242647 0.31581 -0.266687 239 0 0
-0.0242647 0.315273 -0.26615 239 0 0
-0.0242647 0.314737 -0.265614 239 0 0
-0.0242647 0.314201 -0.265078 239 0 0
-0.0242647 0.313665 -0.264542 239 0 0
-0.0242647 0.313129 -0.264006 239 0 0
-0.0242647 0.312593 -0.263469 239 0 0
-0.0242647 0.312056 -0.262933 239 0 0
-0.0242647 0.31152 -0.262397 239 0 0
-0.0242647 0.310984 -0.261861 239 0 0
-0.0242647 0.310448 -0.261325 239 0 0
-0.0242647 0.309912 -0.260789 239 0 0
-0.0242647 0.309375 -0.260252 239 0 0
-0.0242647 0.308839 -0.259716 239 0 0
-0.0242647 0.308303 -0.25918 239 0 0
-0.0242647 0.307767 -0.258644 239 0 0
-0.0242647 0.307231 -0.258108 239 0 0
-0.0242647 0.306695 -0.257571 239 0 0
-0.0242647 0.306158 -0.257035 239 0 0
-0.0242647 0.305622 -0.256499 239 0 0
-0.0242647 0.305086 -0.255963 239 0 0
-0.0242647 0.30455 -0.255427 239 0 0
-0.0242647 0.304014 -0.254891 239 0 0
-0.0237745 0.297347 -0.259315 239 0 0
-0.0237745 0.296821 -0.25879 239 0 0
-0.0237745 0.296296 -0.258265 239 0 0
-0.0237745 0.295771 -0.257739 239 0 0
-0.0237745 0.295245 -0.257214 239 0 0
-0.0237745 0.29472 -0.256689 239 0 0
-0.0237745 0.294195 -0.256163 239 0 0
-0.0237745 0.293669 -0.255638 239 0 0
-0.0237745 0.293144 -0.255113 239 0 0
-0.0237745 0.292619 -0.254587 239 0 0
-0.0237745 0.292093 -0.254062 239 0 0
-0.0237745 0.291568 -0.253537 239 0 0
-0.0237745 0.291042 -0.253011 239 0 0
-0.0237745 0.290517 -0.252486 239 0 0
-0.0237745 0.289992 -0.251961 239 0 0
-0.0237745 0.289466 -0.251435 239 0 0
-0.0237745 0.288941 -0.25091 239 0 0
-0.0237745 0.288416 -0.250384 239 0 0
-0.0237745 0.28789 -0.249859 239 0 0
-0.0237745 0.287365 -0.249334 239 0 0
-0.0237745 0.28684 -0.248808 239 0 0
-0.0237745 0.286314 -0.248283 239 0 0
-0.0237745 0.285789 -0.247758 239 0 0
-0.0237745 0.285264 -0.247232 239 0 0
-0.0237745 0.284738 -0.246707 239 0 0
-0.0237745 0.284213 -0.246182 239 0 0
-0.0237745 0.283688 -0.245656 239 0 0
-0.0237745 0.283162 -0.245131 239 0 0
-0.0237745 0.282637 -0.244606 239 0 0
-0.0237745 0.282112 -0.24408 239 0 0
-0.0237745 0.281586 -0.243555 239 0 0
-0.0237745 0.281061 -0.24303 239 0 0
-0.0237745 0.280536 -0.242504 239 0 0
-0.0237745 0.28001 -0.241979 239 0 0
-0.0237745 0.279485 -0.241454 239 0 0
-0.0237745 0.278959 -0.240928 239 0 0
-0.0237745 0.278434 -0.240403 239 0 0
-0.0237745 0.277909 -0.239878 239 0 0
-0.0237745 0.277383 -0.239352 239 0 0
-0.0237745 0.276858 -0.238827 239 0 0
-0.0237745 0.276333 -0.238302 239 0 0
-0.0237745 0.275807 -0.237776 239 0 0
-0.0237745 0.275282 -0.237251 239 0 0
-0.0237745 0.274757 -0.236725 239 0 0
-0.0237745 0.274231 -0.2362 239 0 0
-0.0237745 0.273706 -0.235675 239 0 0
-0.0237745 0.273181 -0.235149 239 0 0
-0.0237745 0.272655 -0.234624 239 0 0
-0.0237745 0.27213 -0.234099 239 0 0
-0.0237745 0.271605 -0.233573 239 0 0
-0.0237745 0.271079 -0.233048 239 0 0
-0.0237745 0.270554 -0.232523 239 0 0
-0.0237745 0.270029 -0.231997 239 0 0
-0.0237745 0.269503 -0.231472 239 0 0
-0.0237745 0.268978 -0.230947 239 0 0
-0.0237745 0.268453 -0.230421 239 0 0
-0.0237745 0.267927 -0.229896 239 0 0
-0.0237745 0.267402 -0.229371 239 0 0
-0.0237745 0.266876 -0.228845 239 0 0
-0.0237745 0.266351 -0.22832 239 0 0
-0.0237745 0.265826 -0.227795 239 0 0
-0.0237745 0.2653 -0.227269 239 0 0
-0.0237745 0.264775 -0.226744 239 0 0
-0.0237745 0.26425 -0.226219 239 0 0
-0.0237745 0.263724 -0.225693 239 0 0
-0.0237745 0.263199 -0.225168 239 0 0
-0.0237745 0.262674 -0.224642 239 0 0
-0.0237745 0.262148 -0.224117 239 0 0
-0.0237745 0.261623 -0.223592 239 0 0
-0.0237745 0.261098 -0.223066 239 0 0
-0.0237745 0.260572 -0.222541 239 0 0
-0.0237745 0.260047 -0.222016 239 0 0
-0.0237745 0.259522 -0.22149 239 0 0
-0.0237745 0.258996 -0.220965 239 0 0
-0.0237745 0.258471 -0.22044 239 0 0
-0.0237745 0.257946 -0.219914 239 0 0
-0.0242647 0.262728 -0.213605 239 0 0
-0.0242647 0.262192 -0.213069 239 0 0
-0.0242647 0.261656 -0.212532 239 0 0
-0.0242647 0.261119 -0.211996 239 0 0
-0.0242647 0.260583 -0.21146 239 0 0
-0.0242647 0.260047 -0.210924 239 0 0
-0.0242647 0.259511 -0.210388 239 0 0
-0.0237745 0.253743 -0.215712 239 0 0
-0.0237745 0.253217 -0.215186 239 0 0
-0.0237745 0.252692 -0.214661 239 0 0
-0.0237745 0.252167 -0.214136 239 0 0
-0.0237745 0.251641 -0.21361 239 0 0
-0.0237745 0.251116 -0.213085 239 0 0
-0.0237745 0.250591 -0.212559 239 0 0
-0.0237745 0.250065 -0.212034 239 0 0
-0.0242647 0.254685 -0.205562 239 0 0
-0.0242647 0.254149 -0.205026 239 0 0
-0.0242647 0.253613 -0.20449 239 0 0
-0.0242647 0.253077 -0.203954 239 0 0
-0.0242647 0.25254 -0.203417 239 0 0
-0.0242647 0.252004 -0.202881 239 0 0
-0.0242647 0.251468 -0.202345 239 0 0
-0.0240196 0.248397 -0.20482 153 0 0
-0.0240196 0.247866 -0.204289 153 0 0
-0.0240196 0.247336 -0.203759 153 0 0
-0.0240196 0.246805 -0.203228 153 0 0
-0.0240196 0.246274 -0.202697 153 0 0
-0.0240196 0.245743 -0.202166 153 0 0
-0.0240196 0.245213 -0.201636 153 0 0
-0.0237745 0.242185 -0.204154 153 0 0
-0.0237745 0.24166 -0.203629 153 0 0
-0.0237745 0.241134 -0.203103 153 0 0
-0.0237745 0.240609 -0.202578 153 0 0
-0.0237745 0.240084 -0.202053 153 0 0
-0.0237745 0.239558 -0.201527 153 0 0
-0.0237745 0.239033 -0.201002 153 0 0
-0.0242647 0.243425 -0.194302 239 0 0
-0.0242647 0.242889 -0.193766 239 0 0
-0.0242647 0.242353 -0.19323 239 0 0
-0.0242647 0.241817 -0.192694 239 0 0
-0.0242647 0.241281 -0.192158 239 0 0
-0.0242647 0.240745 -0.191621 239 0 0
-0.0242647 0.240208 -0.191085 239 0 0
-0.0242647 0.239672 -0.190549 239 0 0
-0.0240196 0.23672 -0.193143 153 0 0
-0.0237745 0.23378 -0.195748 239 0 0
-0.0237745 0.233254 -0.195223 239 0 0
-0.0237745 0.232729 -0.194698 239 0 0
-0.0237745 0.232204 -0.194172 239 0 0
-0.0237745 0.231678 -0.193647 239 0 0
-0.0237745 0.231153 -0.193122 239 0 0
-0.0237745 0.230628 -0.192596 239 0 0
-0.0237745 0.230102 -0.192071 239 0 0
-0.0237745 0.229577 -0.191546 239 0 0
-0.0237745 0.229051 -0.19102 239 0 0
-0.0242647 0.233238 -0.184115 239 0 0
-0.0242647 0.232702 -0.183579 239 0 0
-0.0242647 0.232166 -0.183043 239 0 0
-0.0242647 0.231629 -0.182506 239 0 0
-0.0242647 0.231093 -0.18197 239 0 0
-0.0242647 0.230557 -0.181434 239 0 0
-0.0242647 0.230021 -0.180898 239 0 0
-0.0242647 0.229485 -0.180362 239 0 0
-0.0242647 0.228949 -0.179825 239 0 0
-0.0242647 0.228412 -0.179289 239 0 0
-0.0242647 0.227876 -0.178753 239 0 0
-0.0242647 0.22734 -0.178217 239 0 0
-0.0242647 0.226804 -0.177681 239 0 0
-0.0242647 0.226268 -0.177145 239 0 0
-0.0242647 0.225731 -0.176608 239 0 0
-0.0242647 0.225195 -0.176072 239 0 0
-0.0242647 0.224659 -0.175536 239 0 0
-0.0242647 0.224123 -0.175 239 0 0
-0.0242647 0.223587 -0.174464 239 0 0
-0.0242647 0.223051 -0.173927 239 0 0
-0.0242647 0.222514 -0.173391 239 0 0
-0.0242647 0.221978 -0.172855 239 0 0
-0.0242647 0.221442 -0.172319 239 0 0
-0.0242647 0.220906 -0.171783 239 0 0
-0.0237745 0.215918 -0.177887 239 0 0
-0.0237745 0.215392 -0.177361 239 0 0
-0.0237745 0.214867 -0.176836 239 0 0
-0.0237745 0.214342 -0.176311 239 0 0
-0.0237745 0.213816 -0.175785 239 0 0
-0.0237745 0.213291 -0.17526 239 0 0
-0.0237745 0.212766 -0.174734 239 0 0
-0.0237745 0.21224 -0.174209 239 0 0
-0.0237745 0.211715 -0.173684 239 0 0
-0.0237745 0.21119 -0.173158 239 0 0
-0.0237745 0.210664 -0.172633 239 0 0
-0.0237745 0.210139 -0.172108 239 0 0
-0.0237745 0.209614 -0.171582 239 0 0
-0.0237745 0.209088 -0.171057 239 0 0
-0.0237745 0.208563 -0.170532 239 0 0
-0.0237745 0.208038 -0.170006 239 0 0
-0.0237745 0.207512 -0.169481 239 0 0
-0.0237745 0.206987 -0.168956 239 0 0
-0.0237745 0.206462 -0.16843 239 0 0
-0.0237745 0.205936 -0.167905 239 0 0
-0.0237745 0.205411 -0.16738 239 0 0
-0.0237745 0.204885 -0.166854 239 0 0
-0.0237745 0.20436 -0.166329 239 0 0
-0.0237745 0.203835 -0.165804 239 0 0
-0.0237745 0.203309 -0.165278 239 0 0
-0.0237745 0.202784 -0.164753 239 0 0
-0.0237745 0.202259 -0.164228 239 0 0
-0.0237745 0.201733 -0.163702 239 0 0
-0.0237745 0.201208 -0.163177 239 0 0
-0.0237745 0.200683 -0.162651 239 0 0
-0.0237745 0.200157 -0.162126 239 0 0
-0.0237745 0.199632 -0.161601 239 0 0
-0.0237745 0.199107 -0.161075 239 0 0
-0.0237745 0.198581 -0.16055 239 0 0
